# x y z redshift ra dec radius x1 y1 z1 x2 y2 z2 x3 y3 z3
-48.55706831648391 71.03237936139115 42.412211038523864 0.03224525381688348 124.35614531219139 26.23956914500581 16.27164000572428 -4.017592994880221 6.127937605067016 3.737399866717384 19.10676273549302 12.618353498793283 -0.15018109336586238 5.838900104692091 -8.598782301034218 20.37542898656796
-127.88430033415004 -223.95479319654586 112.0849112261375 0.09601121382637255 240.2724536014677 23.490416224814098 27.359585245378177 -5.388371243422495 -9.562057088675843 4.926283372444555 -34.94223870482823 9.52543025884624 -19.730705471045646 -11.79086791729407 23.163261508046908 32.06369657150894
-114.1936681282773 209.24063030161665 168.06123286952374 0.09967427278497992 118.62363005147621 35.18512892657083 22.968662901526702 -3.5911821802074906 6.4846813232382114 5.371564006683958 33.42198153219139 9.741675033171083 10.584024744045868 -1.7808671039527202 -23.758457747579236 27.491175536936463
-101.57253931479215 15.236780813757107 192.446227845616 0.07407655871212632 171.4687379295814 61.911053885679245 25.45282906636615 -5.64401475080508 0.8396820547157448 9.891508343996996 32.10778883749842 10.493617924878459 17.429650277618382 7.803552055763004 -36.40578692603889 7.5431012426211925
-97.95802825183107 131.1074842869569 83.20347406968601 0.062164344872878516 126.76554756696044 26.948278287965692 24.692162257113804 6.582819422922819 -8.940616949810792 -5.798633909026053 -21.45599167232298 1.8074781365771853 -27.144477622207685 -20.236851985824078 -24.228228444102637 14.382657861934767
-229.34424502200895 -120.88877995961819 37.81590176399557 0.08930608620709715 207.79399381561558 8.298867142825264 27.036077177920482 -10.323955222865642 -5.45219041332417 1.7094234410507618 -18.855310310259874 28.730199473310993 -22.240751063828156 -6.1115177254985875 22.18009332884441 33.833078149913106
-287.64672586831944 -57.41431447149107 66.33130504484481 0.10285411800705395 191.2878993028742 12.74249322509446 24.601035183934858 -9.742142248059945 -1.848960952662851 2.1265099505656315 -10.594393282149847 21.20756498909471 -30.09632134741492 -1.0403888732700177 31.139370944850654 22.308790306012455
-135.46261197982238 -39.422630101882795 105.86380659406885 0.05968604851677509 196.226169604033 36.88339908165925 22.033011755595805 -7.761513101434276 -2.504527617587323 6.134395733207004 -19.964237928194347 18.189743245487815 -17.833212052573842 6.561431910921244 25.57938050192588 18.74527005588471
-154.72723964545176 -140.29192308755208 236.4946537055697 0.10805355164698041 222.19874601028408 48.550753047181885 17.412218154638946 -3.181880187896364 -2.8014223343877394 4.845117939818326 -22.654869406502193 -3.819738514741139 -17.086432557253673 -10.312427078509206 25.50124683919874 7.972325033078563
-175.95723381942915 -31.58457781704046 133.54873488781732 0.07580891162921985 190.17630271283093 36.76136030603337 25.671413022168544 -8.92068803364833 -1.7090057662249867 7.0188732924495225 -21.885931732342286 -9.399295472970442 -30.104692116185362 -10.230835704240102 36.783222179852714 -4.046711438128988
-159.66841310522685 -21.589926345034915 227.48144405613095 0.0951585554086221 187.70067305116729 54.69066887452649 19.16120363842669 -4.238529919798403 -0.535688495644856 6.223524571946661 -21.036457278114607 -15.60722886125672 -15.670262951852791 -13.983280549696662 26.149464636201596 -7.272500508467042
-203.2735362713428 -217.50135332104628 32.851998041258994 0.10242684689729893 226.93662554350595 6.29720502714217 20.440644923451494 -4.849954994660755 -5.341096863757275 0.7396662678775955 -19.78665405530277 20.600484529252306 19.01506430499694 16.10711004702444 -10.699574440704126 28.35237490755061
-132.2204737806738 -2.1052027619879383 224.39824716729902 0.08877127599569842 180.9121812890582 59.489279175497195 19.732493964413496 -3.959728152850924 -0.03967541468522206 6.533100609822013 -23.548114175662242 15.803155772833799 -14.176596905618235 13.447395065484322 27.499232599188833 8.317501218106218
-220.4568788308117 65.44643829487784 24.831778749575026 0.07863517709383681 163.46556760882254 6.162925675542533 19.12173080829591 -7.493905226363546 2.1759694152049054 0.8449473085254908 8.240333190688593 20.640825828331668 19.928426409265366 -3.3015426420691183 -19.906681152624746 21.9834793228685
-102.35555876467782 132.51891644208226 30.54504437158544 0.05756641263440068 127.68194202550445 10.338113664835543 25.004916196877836 7.513168444841642 -9.53525003015343 -2.1636635517592695 -20.360911634503438 -9.80807459375492 -27.477707976534 -19.559517968341172 -20.348555734279312 21.756900902885484
-53.27568690167855 -174.63100801269695 80.54406679555497 0.06765829217775898 253.03432307549076 23.804755816309914 16.614021083460752 -1.8829656185848913 -5.694493936048224 2.7489291754714635 -23.907142220785968 10.115438310015701 4.578501108285717 8.16915815836832 8.657227118205295 23.529442609778705
-107.38378717448134 207.43563673704082 199.19572207802304 0.10505207905843672 117.36937365625424 40.45704759980702 24.01047552409934 -3.3975146677101455 6.5088760989250485 6.298873256805432 34.9996700395552 13.4208370051529 5.009995570223658 5.370246652351647 -24.56012052049322 28.275576591530157
-159.598406207736 -154.80837194459826 69.31429308313136 0.07918843738796198 224.12715776202134 17.314456638723286 22.842785997707775 -6.798130983890355 -6.660104958905383 2.949300609617847 -25.22676362657017 20.530904036722788 -11.784782986831726 -1.7994488743020463 15.501895455253155 30.858625041764622
-160.94246501254668 8.685602379099793 -0.3685049569757664 0.05447072496054669 176.91090803249304 -0.13099751270812607 14.289172646965145 -5.857423336453911 0.4233501971630592 -0.024420624977592634 1.3955636828860172 19.883784220302363 9.966849193742233 -0.8014018359775441 -9.937971013891 19.938385207058587
-143.0897845607597 -71.17465587906672 267.1419374616772 0.10656783875654165 206.4463289044788 59.11060359024027 23.0102399319386 -4.485843944986011 -2.2870325216542917 8.303446850657963 -29.747163204977774 15.078283501325016 -11.917533644171554 10.08887127245251 30.94915955159679 13.97477922225142
-215.47721485478095 100.59824838920862 15.833699154372436 0.08107290362158315 154.97388961367875 3.809311406888104 20.17925274704426 -7.581402188810359 3.4583083471746257 0.5583947292843227 13.049647720161582 27.254137460934533 8.383705051519078 -1.6502378307689645 -8.487524851113523 30.160315730045543
-193.04119444286658 -67.60296224409292 229.296965333089 0.10515072266061742 199.30023725101975 48.26657597794249 28.641498286702323 7.917787419131907 2.805153136333657 -9.685785845852877 24.108014558522406 -33.94271207787114 9.877115874058756 23.504046349577134 24.335902585525712 26.26177989033111
-62.492541769801534 108.17987780657832 105.58185899857246 0.055291094720503614 120.01384543630628 40.2014608027082 22.14296386339951 -4.004682606595954 6.752982488043823 6.6476909244219256 28.66558445874627 15.202647431859289 1.8251985160777142 8.619097655735853 -19.21921320868094 24.715914528316908
-136.89646472989276 252.0367352172912 120.63826415947904 0.10651778437447408 118.50907328804239 22.812240783366406 18.347381801058237 -3.086793671490489 5.607113182252281 2.665004342718676 25.45998144659363 15.33685434013487 -2.7788954864095587 8.139384084109091 -8.545776718278036 27.40773641508855
-224.33434878455597 125.69924102453334 180.66003777764513 0.10761328718368296 150.7371754956872 35.08984003231259 16.621041810853182 -4.303630741986142 2.3195873445779887 3.5203181521007734 16.278630074461024 -3.2747997131967432 22.05863034007004 -10.40503588968929 -25.26576279983468 3.9276879866720833
-146.84582377962948 138.66888003582386 125.91174984153297 0.08096022677219157 136.64046310722657 31.93988414428268 22.02834024232274 -5.625593084729942 5.5531252661525405 4.926955503335791 25.526369645223788 21.809017901364907 4.565245251587958 8.810633558431997 -16.25280095219829 28.37835225772605
-151.79513338319578 171.3204414282317 154.5082856859526 0.09424977024907143 131.54192148510106 34.020183339505735 22.007064255830475 -4.82921463121965 5.546661812244552 4.886362215967786 28.99240205194495 12.325170368599718 14.662642105492125 -2.3893313853369396 -24.056545303174367 24.94594581720023
-125.33554672327014 153.83165128946243 244.6968642199846 0.10788479047384668 129.17169666210313 50.96111223639681 17.628231290074353 -2.5701531953668746 3.208880175259368 5.1986889860652825 23.10344596155302 -6.88857370894549 15.673952277378312 -12.98570612191349 -24.188453502635284 8.510336923414219
-170.02368070906957 131.65094361620177 225.76288759910602 0.10673920819749871 142.249042610981 46.39416553762945 15.869672258755157 -3.122696840968776 2.4609914099721677 4.2675937518760385 22.014799340365304 4.905111617453997 13.280108204839621 -2.014839973920485 -23.2228045306452 11.917579554380877
-105.69609276105214 -91.91641959322479 140.3557482695078 0.06722364374891017 221.01117772199956 45.05788145356088 21.049658389692496 5.029092099745758 4.2155455836665805 -6.921411753287126 20.210425903970858 10.834447287663044 21.283692534427104 -17.252684388423695 25.863761018972262 3.2167606229659738
-145.1534319645131 -86.76310329972436 125.73673572863481 0.07151537114559309 210.868185098742 36.631957093925216 27.138809237840732 -9.893260964059664 -5.83238750322502 8.082547678206618 -26.022213083925877 8.127537474382297 -25.987053249362454 -6.135451216032793 33.39546941834289 16.588296639303692
-78.03134785098587 -155.92416316117496 65.27860756351598 0.06305230626829474 243.41459041466265 20.525441889149104 18.48931424146232 -3.0894547808958315 -6.185630141703321 2.886571697798578 -23.202162251719738 15.421750826204235 8.214317236877875 12.721897599323354 5.551350813108781 25.512039189324287
-96.72165854417086 -247.16286288802237 148.28340179836118 0.10401287607316226 248.6282206647975 29.19153839339649 17.612805272776793 -1.9010654822898152 -5.025405866343105 2.9243448182074516 -28.255919797061598 9.521528991042576 -2.006195066968263 2.9039116780412413 14.132503991330127 26.174100346281534
-250.39300860411737 6.611429482341393 74.39775617015931 0.08906127155957401 178.48750165872045 16.542494385227446 27.32639844573147 -11.37086583712067 0.3326936032442049 3.1638517633404475 10.120237516611425 -13.9468355971226 37.83865205601384 -4.801812226577218 -39.139411446346735 -13.14199712587436
-114.34719284581188 -248.91780230592107 77.69126040487986 0.09724663964789057 245.32702288141235 15.834478418032926 23.365539430942643 -3.7552217119480815 -8.145667811907375 2.6093788499662782 -33.564275456609444 12.588200152716757 -9.006740875107942 -4.335678290218839 12.990835560215505 34.31375931568334
-142.71304648187754 -185.39422371487873 209.2276935980381 0.10747323722861415 232.4115884587447 41.8056988495487 13.695706414078815 -2.241762113666592 -2.9184578927717912 3.242530669892576 -17.68124405911705 14.511230220466048 0.8367758373790215 10.088495627544788 11.303496418351479 17.148576615196266
-193.27888400007848 243.6675992191204 19.450130239446086 0.10668280143728179 128.42170286573466 3.578474592187284 20.616265452997702 -5.323091910193769 6.795756363013549 0.6713440792812081 21.786620805251086 15.353129768911192 17.33247674143309 -12.428511273002748 -12.360127817115728 26.57103860489991
-269.19525433743013 26.163177466142642 -2.317128193380925 0.09226290358892321 174.4488387594078 -0.4908549013680228 16.87974143996016 -6.3806692721544565 0.5547424345405236 -0.12641648098763217 2.1108995460046565 20.050164474250636 -18.559880785184376 1.2113146433476383 18.52432653584399 20.149523678387435
-61.529974944241694 24.410129240231473 94.41664800005964 0.03882173238912404 158.3608164103294 54.96586739131986 21.19488602372562 6.182810254745952 -2.3222891464006756 -9.287928537071071 -18.529856157722495 15.147429494592277 -16.12235658192483 -15.680568009059131 -23.925076000475176 -4.456217788362669
-44.36106236560696 -46.06347643847324 34.652857350744675 0.024403555021295764 226.07857469375628 28.451696709289745 24.64010962023949 -9.580008063212246 -10.244987853296761 7.573321441536689 -24.06368703016026 11.554642613212614 -14.808976936181143 -4.056833355261307 20.47739158298259 22.569507065008974
-209.91329722115546 -96.95531909567136 205.4143370245026 0.10586158874015365 204.79139791373186 41.61734926621267 22.96064431894954 -6.635469136826754 -3.0403546390568112 6.371892456890935 -24.72741407445449 18.89779282863469 -16.73317645447657 7.181693173087182 27.73877201171594 20.71434953755347
-179.9313748443901 -245.52498636763568 12.827234453823129 0.1042378436244758 233.76441948988932 2.4130024317896925 26.71474495083099 -6.581615085578942 -8.58520816472983 0.6245831914451516 -31.92814101966204 23.479289570637725 -13.711778003165376 -9.51497445188187 10.173633232853915 39.576568890792814
-191.057141183037 20.581365399139013 152.43095567614134 0.0834865096675644 173.85160128907165 38.422854092735335 17.817499324984226 -5.562951733226405 0.6757215532577734 4.485098301461759 13.861103263819999 -14.80119117576313 19.42212332087774 -11.072011997236192 -23.70302240540664 -10.161744994260093
-122.42415560396279 -204.0116380787717 45.08830448743011 0.08240283226159142 239.03269735411743 10.730656663139548 29.613295477885075 -7.156178606375785 -11.496192730743662 2.8189219597085944 -35.64768004184663 23.7901360506587 6.525481765552292 10.262129245284513 3.88515181698017 41.89618780697997
-189.95856232341637 -36.12296464113079 105.01887531858196 0.07473454835430411 190.76694411547348 28.507210272874477 24.51591025268742 -9.396387335988377 -1.7489268638130733 5.065637283304934 -17.74529589807282 1.6894640883530436 -32.332935692069846 -4.4331678064667654 36.36936644561583 4.333433077403828
-110.08427072340322 20.801071986826855 135.26297397889044 0.05942842679019582 169.29978235734288 50.366565744703834 26.24471185291376 -7.54668138245049 1.1328306090007474 9.484444961254237 26.173393015940963 21.62540536565078 18.242958588039727 15.145442553311092 -31.689846702892186 15.836146268886306
-129.54971220221952 42.31990758922011 151.2563173798574 0.06905356746387362 161.90937678264106 47.98012426930852 21.39824147502829 -6.381300758829222 2.0465361680812824 7.45852534517747 22.831768675365204 -4.662015358391321 20.813412656832075 -7.723391791898033 -30.25859515289129 1.6947081210254913
-119.79860581120677 24.388894745304125 94.55342881979438 0.05220349195618292 168.49283901385397 37.718558733081444 27.304938299568132 10.999521320457902 -2.2950016271060543 -8.674881224784649 -18.663517761295 -28.816941502194894 -16.041122672294147 14.996103006169859 -23.802265499136578 25.3117232501276
-220.73132954573614 105.80406009381836 70.57442610555475 0.08678112734713113 154.3900095989429 16.083266671877894 22.288721595025834 -8.137505094606233 3.7039987630272075 2.4965926969174723 15.272412461471452 30.665946563483352 4.282919711794828 6.543077179893904 -7.867381362827316 32.999012944195705
-100.59210371683906 183.22381908035624 230.74441858707408 0.10658331282959034 118.76732121213178 47.82799619355326 16.451469972080897 -1.9771686727168483 3.62845625261861 4.644833959396356 25.37224293336155 4.777117879227056 7.068420730004553 -0.5560669594190568 -21.195008981467993 16.320438007835833
-117.14675559325302 108.06002387788652 228.2275061604513 0.09502061110929758 137.3105393437977 55.07280468613953 16.007342223895105 -2.236352131140164 2.1266294332520186 4.36879732985675 19.653030115010047 -11.578926871874373 15.696581300216524 -15.700774847893864 -22.618652432266806 2.973136479128576
-224.78134568579816 214.28474418655517 9.098937416192165 0.1063541349468755 136.36948956853757 1.6782247327299173 13.005487167799448 -2.9655137755809493 2.912612286620475 0.11388574576839602 13.667791761060668 14.371324947659776 -11.643887998668713 8.551211699496008 7.931286799917245 19.826649027759235
-141.6189570658658 -99.10228339203714 176.57242568387989 0.08411724411269297 214.98360560979503 45.61032042893624 17.306324643568818 -3.8762878018906437 -2.8426321691331724 4.794441132844487 -20.977465633587226 16.478300603865023 -7.190190849294788 8.628445585184856 18.924103201422856 18.196198573770165
-167.6801617606783 43.14661171335476 173.32386379372988 0.08338571053321849 165.56997883819122 45.03002043981361 16.646275346353864 -4.4490398041217745 1.2703351724751297 4.5095013321429835 19.34610411869689 6.476566083849297 17.262258474286927 1.1259227773333869 -25.38031217204848 8.260509477568613
-271.2951385676549 85.38993932041362 129.9792038554906 0.10706490240004995 162.5286440558256 24.56057824070928 17.301010281168118 -5.414390887272934 1.7680703789258057 2.5903574029983543 14.241591470350855 17.58736837078926 17.763509376899577 2.261368014171173 -21.26569760952074 19.241815952343885
-197.024769387823 -69.72961811915573 199.58400932300827 0.09873796570793603 199.4895309719978 43.67983504307824 22.274312744730853 -6.086094307117418 -2.194644362325701 6.169028101320968 -25.489768894972947 12.601751592528391 -20.663996366974843 3.625374773510226 31.676565652139775 14.84563978188487
-93.58245268154958 -189.89066357991612 87.60906600379259 0.07787507693334016 243.7648699583205 22.48169882354226 19.95925692650174 -3.276815744141311 -6.465703355174478 3.002448001670527 -28.78646735016881 13.346754558241999 -2.6750816996192897 2.9015102146547 12.126938996434241 29.281740919906856
-106.28879864854653 -176.33529767522947 174.35558428559213 0.09202727986897792 238.9198855583113 40.258960574783075 19.936774803460523 -3.035306637394187 -5.056232131026579 4.84206216110944 -29.25287442983185 12.4198722482745 -5.368309189322883 4.322833791179153 20.69270084669811 24.317784671011886
-109.82913014312302 123.61257590889844 261.8646879713496 0.10600737047974038 131.62092322093577 57.729443376566984 21.68328819444062 -3.070816627232952 3.3861338588016885 7.158077579600879 31.308105084839777 -2.5493164452690076 14.637138984410099 -7.980266224514798 -31.663073949585474 11.554704687492254
-169.1044110842741 122.68178253580217 96.95646236875614 0.0782946750202906 144.03988455253912 24.895379163058287 22.67687260338166 -7.091351280790855 5.08900915501479 3.997631961120082 21.51607008892587 27.189504509315892 3.554697869306664 9.436304468668839 -11.583568563212943 31.484898427341406
-180.94734389641576 186.53036650014693 165.80177584357745 0.1055011061949303 134.12958251767893 32.53801785745303 22.17764201742145 -4.998085095778854 5.2672026089968575 4.510090682265235 26.54637286983495 5.221651566076029 23.320492035600424 -11.617789574240456 -27.64908742748481 19.415717041312977
-206.49042247935938 -56.22262802581593 161.19516128562393 0.09137290609964747 195.23111240793364 36.98784365476223 27.32152130693676 -8.90756792350937 -2.409436735820134 6.866572660266577 -26.519674262881278 14.403147545820868 -29.348313484502786 2.4520481357673853 38.582398294761745 16.71920458845747
-68.92664413250564 -91.70389027815717 145.29351586911775 0.06268933309154992 233.07067794492116 51.706495874632786 19.583157142108554 -3.0265466695742513 -4.2175527748949655 6.624700115220901 -27.69280761837909 8.62138255287621 -7.162956501264849 3.195934837285974 24.36818646943867 16.973863940338326
-90.62946622370936 137.5551318082383 220.89802778660408 0.09403807589483928 123.37925780807869 53.28748349035556 18.806094633847493 -2.45718515439064 3.7245249097116253 5.871205846477591 27.464361560859768 -0.9915138117539541 12.123223278752057 -6.9100018021426175 -25.896655528074735 13.536160513802805
-281.2259577107466 83.0400003275963 84.99112792034938 0.1044594810529991 163.54925847988582 16.163958418746248 24.54433993441299 -9.515505030399142 2.8818430315664716 2.983006195547814 13.036526649466044 34.43971272135632 8.31352239018078 7.585294157313126 -11.361763487115534 35.172814524896545
-86.17089629353354 132.18385035716094 145.8262669204193 0.07294140586721987 123.10040405585423 42.743299854261316 16.80055659163704 -2.6417051074762563 4.2401930532189995 4.535421219949852 24.381001021360248 7.848811126814288 6.863075996259841 0.9624061860121615 -19.065976895656505 18.385462359276453
-218.83951731289585 -181.16524651157965 -0.5759997153782429 0.09702551577251291 219.61949469547878 -0.11616528954304813 20.19452213919263 -6.0244776569334535 -4.861900173762162 -0.0075538414828240944 -20.24033858151071 25.072415667387343 5.015390282920231 3.1264061058266575 -3.924073451675871 32.23388603785798
-113.95281285451937 -20.206632790261516 199.0558540904035 0.07827142466977831 190.0554243039125 59.82640146005105 15.328429845583985 -3.0236134002185264 -0.6469754319444981 5.436008599727041 -17.885481798755375 -11.336282215491094 -11.297457940404493 -11.019827368029373 21.00345494936647 -3.6296812261971185
-107.14717047401993 50.50569038314941 236.66157859101276 0.09023107778052063 154.76233520752743 63.41109786869555 14.953837203852638 -2.1268878171091314 1.0331925550531855 4.58252887446747 22.549689014880737 -3.6014845947745173 11.27798369231554 -5.458719751666457 -24.684157830631573 3.0318201897087897
-99.2509049218086 -137.33143039544964 15.642248501151395 0.05755071124869854 234.1439548205977 5.2743749952491426 22.09127214019531 -5.873153166480793 -8.288854130065419 0.824992989725811 -25.93916681784843 18.894223208091347 5.171874662915306 5.7419860222330765 -0.8816410111988936 32.01938680743824
-190.40804118234018 -180.05514621443837 7.120087272241242 0.08936118823807822 223.39923948631 1.5563294608228728 21.664873447724894 -6.2245433952617955 -6.116667123389509 0.2580297950827962 -21.618879005035897 22.57758467724947 13.688029306774865 10.259016285030809 -9.12172599471866 31.248835258817117
-176.91891886463526 152.80548359961114 13.773346328941933 0.07963232193714255 139.18271400452488 3.371832311564321 18.37784629913433 -5.111117084923851 4.328954319921996 0.46731487912640923 16.678950678002966 21.206788223172634 -14.027260877473068 10.517279887606243 9.51474719452573 26.890098113831375
-163.91585456219318 202.16358197365102 111.51514859481229 0.09669375269812334 129.03541658378575 23.1934701586963 28.864941741725136 -7.276006855858391 9.209495442889134 5.029292877208969 33.46907897692936 27.571833732769157 -2.0681692779846346 12.343259607562905 -11.996094454547416 39.82421060573438
-265.9705557239039 -41.606168938753044 151.5386246276336 0.10573442069898656 188.890809366325 29.375653075874375 18.346460214887973 5.961414329182835 0.8758938758079654 -3.355342637864805 10.931070445144627 -24.64174304105383 12.988565660713782 10.338979799214375 16.54525175453595 22.688242372204137
-148.8726709549185 -267.23356712658006 49.65179200121006 0.10607917556725209 240.8783357034295 9.219393192213385 25.381512975225817 -5.3087999801827666 -9.286135653290685 1.7915640673537798 -24.908067330878453 18.712910034643656 23.185703740040626 22.935490236624453 -7.23224778611011 30.476329085061018
-253.03362000897047 156.32052999728523 31.13288665231884 0.10226569913392111 148.29282430360047 5.9756434839732515 29.3389649435707 -10.861548959573847 6.439040683900742 1.2598580476640933 22.245171295766905 38.39521392005182 -4.453936191946959 6.076079368856514 1.6048156998816734 44.18129492334017
-224.50339242428532 -37.22032900440275 91.91701772083678 0.08353909587410915 189.41342155627797 21.994293985321146 18.703000524559535 -7.050386156454958 -1.2914634429293277 2.853619333777013 -8.902991388429571 -9.183457608892208 -26.152621736977867 -7.779006730797674 27.208038202070593 -6.905901723024645
-58.91906759688545 -139.09629142544156 121.73754867657486 0.0657473650825135 247.04322518871564 38.86488054502457 23.230355775751317 -3.1613605942451533 -7.4547678282774275 6.4750425951106285 -28.302176605487688 18.674522172403734 7.6819326694302745 17.191525398254498 15.337841865524027 26.052131482609884
-204.3766870590485 119.97331862579372 119.30065093044472 0.09046538481873598 149.5861895804661 26.720832046115135 13.458543567927995 -3.845142588457405 2.296598433760301 2.276665067771666 14.178112697570436 11.607126005089015 12.237178822662509 -0.33385480682102153 -15.780725837416444 15.355034607685495
-170.0989587209556 174.14361756767738 53.445753499501464 0.08486066851607287 134.32683742689852 12.382828990352676 20.99929337010123 -5.80285768368941 5.90735556516603 1.8421966607910492 19.864338361716758 23.35631777625069 -12.324495960098643 13.649157148717821 4.115208742224603 29.79818405899682
-294.82991833223156 -77.0603129026534 82.54906627077675 0.10812339929481127 194.64782883132534 15.15702301552282 15.773627336145209 -5.2973619909984935 -1.3547084786044363 1.6079149591650488 -8.713594304724525 22.890788061426928 -9.421343162291807 4.218141656462052 11.213922268388707 23.34490306532045
-223.24004893251606 145.59184009578956 91.72558665020865 0.09624327297316009 146.88856731543262 18.99140219634729 15.0797518239373 -3.883828206227943 2.476531320993693 1.6369682854854706 15.50993938482091 13.063635426896795 17.034806358896862 -4.255863276558248 -18.729614333033677 18.238248691354197
-148.55218210682813 -36.47564681087692 195.26114060374476 0.08444737909001214 193.79553715598095 51.92535989378912 18.256974611639155 -4.054982841508655 -0.9768540507441688 5.509429370060981 -21.142895179912465 -11.214190379496834 -17.54967674108121 -11.420060696166976 27.15110152586128 -3.591204339919089
-162.40697884303654 -126.69533592968182 5.27343382776706 0.06989848502480492 217.95815524610978 1.4665482334555018 15.373493635951535 -4.756661595632783 -3.697766869408665 0.14317363492183346 -15.026890466619585 19.226667720986125 -2.668772618414262 -1.1813252466675341 2.464651928821754 24.407732723655673
-296.83822348966925 -86.2371660302927 47.91545440528486 0.10709785193621647 196.199588828056 8.81131346458604 16.64435998252041 -5.9867224655954345 -1.697614510279933 0.8960128318389005 -8.153277785127264 20.39416751537279 -15.836800636172534 -1.3701569943006322 16.247738777952804 21.628761063326735
-276.97367056885054 -83.62171125846662 34.72045894555783 0.09958177033618874 196.7997023325364 6.843137214064724 17.985132168872017 -6.200791237867597 -1.8833777061363126 0.770479157121674 -7.904018286243433 16.320852059539725 -23.716200821655562 -4.918076244349652 23.470218190958384 17.790645586163716
-102.54430745005573 -192.15414446911336 210.77198405707054 0.10368361888786501 241.9130995341863 44.059992775665656 20.218545036354506 -2.6723082667274354 -4.91294340446536 5.407738335158287 -21.97986543041803 -11.38124804373001 -21.201544249447192 -21.305703726350025 22.56695814275082 9.973629755575827
-158.9953009427412 -168.1951530111826 215.64775051529764 0.1083438095657499 226.6106027612653 42.9757737765155 14.946946794919564 -2.643306806302815 -2.8485973934055044 3.624748690056394 -21.51178312971743 4.747112219829347 -11.956589262525844 -3.1718699477417656 20.624496937087592 13.89521511708742
-186.20736699159363 153.6463091197777 172.356105244733 0.10141495210693849 140.47274953077422 35.52479662791188 18.645880063341014 -4.541602170451368 3.8091305077784052 4.255831712906 22.450988531284352 17.95731293826194 7.886051882602624 6.354224158456713 -17.99551881421286 22.88756805225947
-171.6456584514954 -86.73113752742249 146.36387444310412 0.08223450248382186 206.80709399165886 37.27362925001676 26.654966987503517 8.609483213202026 4.3976383187210155 -7.533467976870827 22.96664516121264 -30.785473671440347 8.276077829353433 15.968346412171046 19.949286084069712 29.894459760637243
-256.70743980382497 19.57877290258048 113.90545514487789 0.09612517222886444 175.63856229467788 23.866135066826697 19.84555354045793 -7.179273859031743 0.5602671861862452 3.231465241259296 10.749105816061801 -13.644559390686625 26.24672306756338 -7.446771651713742 -28.26465148945156 -11.643837542914167
-219.9604527583983 147.65210252054084 160.78562281837705 0.10607554959756103 146.12785775728747 31.254254625023954 22.291313624295412 -6.109998630510149 4.115372960285962 4.389551223777564 25.189698864106617 16.30968262825715 19.771633649781343 -1.1401587802886597 -26.986509737877757 23.713855602771044
-167.65085424726502 216.48648884061146 22.544947919293538 0.09375261399421202 127.75481554108329 4.706957419145137 18.830438928709214 -4.18684447724612 5.571320552777197 0.5778324989891332 24.05568428070008 18.63261574389466 -5.349069452379636 5.803205322333476 1.2152834704944426 30.3312541405718
-137.48412975636492 153.63608594718286 206.09679348878223 0.09962343745518347 131.82436656852647 44.98987179766147 14.298084285862359 -2.478559603055158 2.731024826027794 3.620482486755514 19.89030322777341 0.7913485174786481 13.019841912795712 -6.323761393746931 -20.171645881417124 10.886793762511072
-240.79097398125748 -119.20894703726694 131.29277563741059 0.10226422143360954 206.33873823338496 26.042509682916883 21.093675959181578 -6.6913829792556765 -3.382388149401956 3.7175224745237685 -15.65420925914225 29.574066107575764 -1.2689469104127509 12.626798024795438 7.969973732250353 29.979182870414522
-263.02277660067034 132.78024107800286 67.35134452891413 0.1033845053042552 153.2142545208083 12.876019334870039 22.13322789244697 -7.619652406053124 3.720393344131778 1.7343800403320464 15.819879887426094 21.61983675626734 23.125086858579408 -5.609412452265102 -23.534766231096032 25.840250412960657
-171.58261295645804 -186.28952455660763 125.53654982250809 0.09652657001937294 227.35327088644954 26.366143082737253 27.438854169139983 -7.3021536636737325 -7.912679521117562 5.339911049174951 -32.44495348260299 24.499843956874127 -8.063546751257668 5.579627044282849 19.325139070247168 36.26594608858847
-255.968562176597 -183.47920632632025 -0.3504976848486022 0.10784842862597237 215.63309326767705 -0.06376548247766718 17.45735141434415 -5.310135827931492 -3.8934914355890706 0.06475246966233666 -16.75430149922466 22.806149463656585 -2.6573356720631836 -1.347057923228429 2.3078353677522556 28.29971904105697
-90.87884815158758 -123.04665278824186 72.65568442691684 0.057270804456529795 233.5514521364857 25.406348948580508 23.27601589245418 -5.6786655695131785 -7.467287387467157 4.714521772578778 -29.13179822636524 15.400023732825085 -10.697444833658995 -0.6935786437384567 18.879758551408973 29.068055755409983
-260.9748085315732 52.13152273053128 18.465973622629345 0.09097051370052467 168.70346019582405 3.9692125043793385 26.75372282141214 -11.303087575128078 2.0543658502065325 0.7653714143294915 5.67552471550041 17.698431584421915 36.31165068948802 -5.299910238593044 -36.007024068361616 18.37833342494832
-142.4387773730465 125.7421450844898 16.2406897425281 0.0646055621787997 138.56257030112104 4.885621002438821 19.288699849119258 -5.974549532364306 5.4039523333576405 0.711579887122807 19.37871917675045 20.04522838187849 10.477613326706901 -5.2388952779802205 -9.448117958886083 27.765174528026854
-155.79104180839605 167.61686761822688 23.127334546151037 0.07818432805048602 132.90583922319325 5.770989538465123 19.963662702390845 -5.48956055305065 5.98298571654348 0.8233548918043162 20.66487569649791 16.705622236663768 16.386114133230897 -10.329796770698076 -13.109942639819847 26.392695181140592
-68.17284941631974 -185.06934468753886 92.39020037004792 0.07395711258117336 249.77802827779482 25.100635291248853 13.568441695968488 -1.5174250657571116 -3.9679178436556075 2.111845493848658 -17.602024025979883 11.574343981324999 9.099289509104441 12.761529895785 4.924593170795882 18.422297734252
-280.1157469311335 52.26452537167421 83.05584689732083 0.10147860721610542 169.43117046745695 16.25010047074932 15.813203477766063 -5.2653747495509755 0.8893294081904368 1.7105502120937963 8.267597798908348 20.4210432588985 14.832050058730795 3.8763480275133166 -16.446078899994355 20.48253619917962
-129.51395818744484 -151.2725197096334 9.917797559073826 0.06760122694206887 229.4310798328393 2.8511360914322696 24.5856512967974 -6.7619129224271335 -8.105671336923765 0.802528884325028 -24.811241585817097 18.618578781177877 -21.002826276992938 -14.674323451034464 15.300883820655551 30.899122171931424
-229.9776747545512 203.63690546027902 68.46762268181224 0.10777067155551275 138.4762728152355 12.565429427731106 19.478158757603012 5.9270756945411085 -5.325809036427463 -1.792730396296218 -17.7087316432071 -12.745574238180508 -20.68381198202101 -10.70077777742717 -18.91649931789792 20.818157155513404
-266.92539848956307 -109.81965228948278 71.7007229759061 0.10168868232797046 202.36346718569243 13.950690155529529 23.079321746225208 -8.089874226366813 -3.3892323037610987 2.164285641292736 -16.207968258215455 30.64857749134957 -12.588576690657003 2.6201410801757063 15.158292856383946 33.53142775060812
-260.56950065500365 176.9486041425077 38.31362389869066 0.10867838394192587 145.82019755966326 6.935466633266401 13.677313263864658 -3.855414196038846 2.668160840174292 0.6048399935130586 13.362012974391527 17.730180072920543 6.959067512833531 -1.6588823201485 -7.383340615261806 21.996332906786016
-263.821623308072 -160.90486933241186 19.392947744040136 0.10598051136635993 211.37902479761286 3.5909824313902114 21.025861597725605 -6.783320065752084 -4.181170399889435 0.6717199383183967 -16.91777569224667 28.646861475176113 7.471449993272113 6.3113281082576895 -4.915486182579009 33.13772898620388
-123.99368800594235 -8.577124040565515 178.3941292082176 0.07382862443758596 183.95706764398778 55.13446777172566 22.439710484348765 -5.240881963918322 -0.1293502772138218 7.417076598214026 -22.94242070235245 21.606777693696067 -15.834227222553956 17.420324378389623 27.874001715732057 12.79525328242523
-264.5038480829684 6.693603632186381 167.0501880624289 0.1071356279710992 178.5503674011552 32.26660983540269 15.580291628710395 -5.161284874396385 0.1434273845758256 3.244325887895426 12.198734277691267 -8.92786451113042 19.801229959848634 -5.212398268624712 -23.23523802381983 -7.265023224506942
-248.42486705600874 -11.514210907366671 150.34700809335664 0.09930432442702666 182.6536952638932 31.15514863579383 21.503197208945476 -7.722808278683327 -0.38800436285375184 4.5872914170483625 -14.439872466347621 -15.538316142422055 -25.624118983165587 -9.028307677531282 29.359966849239232 -12.716021011223566
-162.8568835183236 -217.34741854247167 29.608238820720324 0.09321542410059962 233.15603900899026 6.221661593879732 23.395564818780244 -5.855515734855812 -7.653914803889293 0.9595546274862441 -28.966169553455472 21.84773131664832 -2.491976354836336 0.19518666602763673 4.375729336755982 36.09422241368397
-173.97065982367764 60.05404636322511 134.61947856974396 0.0774984718704855 160.95551001498296 36.18366999979176 22.220929472783883 -7.345408530086677 2.36545918496 5.796973058016611 18.839103657721083 24.231332114843433 13.983622966754668 11.118644692255474 -21.941576095028694 23.04183389075154
-237.10904177971003 74.23622734973155 180.31798707757684 0.1050558195683739 162.61523692380612 35.97013272552467 24.36067967039321 -7.8530847837420374 2.4784511793295216 6.102757805649137 17.85574023751051 -15.41700556467197 29.23808272711811 -16.23854799301173 -33.010957720799496 -7.489506959913016
-167.4291901205779 -0.10688937360907476 90.96200746443577 0.06455407464041664 180.03657850310097 28.51462823392981 27.683188191851766 -11.78377716995227 -0.1242030305321223 6.32425633401036 -16.992677265013608 17.781469831555754 -31.312679232573796 8.121973961540077 35.643898614638374 15.833420766384863
-137.36800573538997 122.34173888031795 249.66306795233336 0.10615118274598812 138.3113232624784 53.617525378427295 18.29143671043188 -2.946027033582354 2.641002433131676 5.403842844569923 21.440193704062885 21.278255339258738 1.2893539531101192 16.653795682767804 -17.85959269261004 17.807653334295562
-137.75476158736487 -244.2697904337133 50.09472281188986 0.09729721471423239 240.57938638612788 10.12802641987047 21.738721489503153 -4.178007282143411 -7.428304120554024 1.5489973815064022 -30.150566235421955 16.04888916205602 -4.359759338622747 -0.869059925936747 7.496461711708286 33.60564668795745
-167.27623988183183 166.92742092338875 129.45762570902912 0.09190691953659083 135.05980140022228 28.71443752478408 20.49006961246667 -4.5949487283792445 4.827801383138787 3.6426353456737295 19.4235491734352 25.741294707910967 -9.614919500834649 18.46105145462442 -3.4993929543017686 27.925375284052844
-265.6940208328292 -5.652192285508182 98.16125672813776 0.09674733825867708 181.21868727982155 20.272651403081248 14.721108292564214 -4.908552042756738 -0.08279707740054985 1.820378928308694 -6.263826567127164 -16.113153952181765 -17.62294665556118 -5.879467401382594 18.69474991797619 -15.003360367838823
-165.1240846332692 -273.3383750033774 16.72125554786907 0.1095541736625635 238.86376876514916 2.9973533191544712 10.686078804821594 -1.875759412209236 -3.033213065415735 0.25203926679936345 -14.19256336396959 9.37596265724484 7.211011770280719 6.778219996159902 -2.782545255613887 16.958696101848755
-127.52114279134041 155.82766326737317 17.824065427217935 0.06855109839811988 129.29508482328632 5.058667080619286 17.816566525757082 -4.7304935691212915 5.640574869056312 0.7112126450607782 21.09262290345283 16.989787011496077 5.548764325868718 -2.599198732481692 -5.579858762004883 26.965378568791685
-146.69219860800945 185.17402995443788 64.94362592622628 0.08339015668615479 128.38575801301278 15.371378759062916 21.573843349181267 -5.501839278862183 6.969171523618123 2.457396756092016 22.165856993325868 21.563441695771832 -11.526971007684455 14.48080662716223 0.9720138904675781 29.664293722291983
-87.43475163585272 -269.9537856488682 126.80366184485749 0.10639468250948712 252.05349106354595 24.078387310721798 20.65516901346446 -2.1491675709902838 -6.4563697764271675 3.261405504429217 -29.01877551667878 0.5447730598419784 -18.044047234174457 -15.201294856434851 17.679055912413073 24.980761274706072
-110.15964010632963 -226.59202725672864 61.05435674654263 0.08834582443315775 244.0729023185391 13.621717247383643 16.324855898698953 -2.5433799649447963 -5.325504396617317 1.493245642075381 -24.118785635270605 9.8212468283159 -6.054022690145595 -2.8863485195314262 8.443475888972383 25.19658247302027
-307.4450908516356 63.73119899852201 61.40649460557926 0.10960675001002158 168.28885304499187 11.065879686693087 12.670417647327792 -4.161963218725358 0.8483193782311093 0.8013980114844971 5.3046019075942255 7.442009706187425 19.671070749780252 -2.481430254547151 -19.92888403396771 8.20870150537562
-119.94027930612707 199.20915951094406 102.0831637258052 0.0865028536027126 121.0513954285188 23.702036489218578 24.506937568457264 -5.195120963336916 8.478911476989056 4.288243229078002 26.32151959188077 3.177872395356514 25.60455963615557 -18.79827900074209 -22.717423687283716 22.144194264544662
-167.6944198626128 140.3395057394843 152.67006194893932 0.09094317901459767 140.07483189388842 34.92179859327372 22.551674107444978 -5.648612455668882 5.029521654179705 5.567104781496392 27.645939398370132 10.381409447958733 18.671765324119892 -3.8474576714357562 -27.63188508167624 21.059845582258156
-180.34669225957353 -71.33013484486901 19.33536408051332 0.06605516566625498 201.579626193387 5.693426719997244 25.10985753237798 -10.459019597668357 -4.272695793804861 1.0217631976096622 -13.895369157881937 29.74651101233708 -17.845764947297432 -4.039848032689936 17.694472935323322 32.639901708012445
-138.8516275637153 242.9491139704543 147.31462047359668 0.10830628714873188 119.74907012092936 27.764378028189203 16.230418566863978 -2.6775081199807444 4.6743357106172585 2.875137215574605 23.65453528976904 11.237979221044164 3.758124191810714 2.415477515373478 -12.790440413957763 23.04386471839649
-128.73085163062663 13.45767026739049 19.86608337038568 0.04414366353143637 174.0319122097883 8.72601383117446 17.276572458200473 -8.24400136993501 1.0720791599115649 1.1496535201846607 3.6423972110825584 24.283859681635157 3.4738359349108707 2.8799635094980447 -3.9074938173271363 24.295638047729376
-93.91220305389322 -0.9340456276873197 11.974602273398128 0.03182154645289256 180.5698418953173 7.266131008321506 26.17144671467093 15.623093956817781 -0.4246883654033542 -2.4153323319712436 -4.958009005419221 5.232523836259326 -32.98992501803551 -1.6750832443232273 -33.15000693591249 -5.006168506410883
-167.5448610208718 -50.43834272329971 197.626812742536 0.08998804469604625 196.75409608087296 48.47937442341388 15.652034962591738 -3.7152960061480447 -1.1537228157813326 4.402011063385189 -18.112664849922396 13.71046416451599 -11.693708924137715 7.976110366970469 20.965230459181196 12.226610731978289
-83.89878910836843 -166.92541574695215 34.865086229518546 0.06438407877266807 243.31532895135308 10.570952711776822 12.335672008036042 -2.1470237292688985 -4.127303610814374 0.8651964466892313 -15.947085784654993 9.742368386113647 6.901254216193428 7.796970430369195 -0.21540886008913884 18.320952224225756
-252.04979216937096 2.514364749174441 125.12126017210751 0.09608431943740742 179.4284553516661 26.39934919194197 16.67408901141105 -5.180024289809588 0.08055461833048971 2.561651027795508 11.634725545098629 -9.930750863555128 23.839363016976424 -4.732978054589131 -26.518420996134815 -8.736849696149623
-176.96690981549105 21.652299502265308 262.6467681584467 0.10873065518652172 173.02440301191012 55.831045529789414 14.481838975785443 -2.79291445473913 0.39761977003810733 4.22895036245325 18.320379380105255 -9.620318069596662 13.003813318259335 -9.022681205253814 -22.39111511034539 -3.8535393704953425
-34.08117381487327 9.919321854452972 25.738291560966122 0.014676126367205986 163.7723688892849 35.94652164582018 21.064523731202307 11.474902641954127 -2.1992968912857753 -7.381102177217824 -10.548481038944288 -21.503752802323046 -9.991686130682544 9.935994023747742 -13.987966517871062 19.614720386688685
-176.93250812391568 -52.94566103607201 0.6003624261990004 0.06253870411261893 196.65939867196502 0.1862534030524977 11.972596566673836 -4.678077253641007 -1.4205725362880912 0.09135359806505264 -5.396818782721972 17.87181466576568 1.5486406812624036 0.7838823633090604 -1.3809105702200406 18.667886742540357
-222.36303805727565 85.24469402510726 43.530672008285784 0.08237809919734632 159.02526436898074 10.358865783574807 19.72524575727075 -7.628761140761055 2.81770696550521 1.5747686446447169 11.681771425530398 21.509219617043943 18.104733076677068 -2.0685230560315855 -18.886610824954335 23.772804148055638
-194.044034248811 -90.4283849174161 83.96672594223918 0.07816899601553595 204.98645676303383 21.41613858308982 21.28007730944956 -7.59192829680183 -3.6220510150848346 3.365311325578359 -17.76837954518411 18.77316727057102 -19.878961384700922 -0.974373640519762 23.265100072595693 22.841870211715083
-79.72743297135524 87.60431943158339 173.01314904061942 0.07115175933231564 132.30487830430235 55.602736364295936 19.68721277547906 -3.244411089599025 3.6645040900719383 6.829311093850716 21.86217992941106 20.727024445994275 -0.7357062495074516 17.169373278076215 -17.48710462835106 17.53999339799039
-131.22448958176673 134.05105485547097 219.01967949677297 0.09852223997636357 134.38952483335106 49.420182346252446 18.33606005135466 -2.9478931951086933 3.0060900567308395 5.077499241251078 26.14156337828455 14.37551821674725 6.666359326188811 8.029086681979834 -23.10613592312683 18.341315481473632
-143.48175903287537 218.89502629762083 48.56244574445499 0.0907700910397643 123.24412171405407 10.51139664974498 17.945288442351814 -3.7328027479189165 5.589917336258251 1.1912158578608258 24.12731721260341 16.258397643982185 -0.6888615974543133 3.3996787613768538 -3.831853734406313 28.634672395754908
-228.04383306961046 30.42548135029734 216.53466435780217 0.10820121830880393 172.40050910402172 43.26473358148115 17.47292129236731 -4.605155177532981 0.6689096784374512 4.421102391350545 20.05209364052127 4.579539042451186 20.193991669455993 1.0501125303565617 -28.307090917552877 5.376672181542109
-308.6524996390482 -7.619811148764728 42.914626832157786 0.10671505558630134 181.4141934972423 7.913200328913622 21.012477860183168 -8.357351679528465 0.0050556296651820265 1.2399526823909897 3.933600572781955 -19.395263253717925 26.591771678111346 -2.8605682330938262 -26.864263256452773 -19.170859742133512
-303.9134572631272 -41.7435133770389 86.15733742445661 0.1091511752448133 187.82082648457742 15.687719798931505 18.66187311475382 -6.895147762357492 -0.920353636214023 2.1141345574826285 -8.77554691549679 20.85039729858047 -19.544145646431875 3.5897369937769916 21.091901476777913 20.889765536731552
-273.9274129897077 -20.517538474640794 12.52998876817058 0.09383696694757601 184.28353380622448 2.6116925191670197 20.371028910667988 -8.495983603422916 -0.67549562106961 0.49210570845280865 -2.693730792528248 13.157733532030413 -28.44490730513532 -1.4933625490604792 28.484569970730867 13.317501585382253
-139.98631532770278 -86.06024270759073 246.03303545431294 0.10114724210449463 211.58220727620233 56.26119748964816 20.101033871237544 -3.698058514565669 -2.3364304565869287 6.528600393002672 -22.021420047590222 -15.133605431071866 -17.889763429559014 -17.88239223563946 26.69986967085793 -0.5740501725197025
-219.55650981073833 -110.03297220671662 100.84462973403807 0.09052182066668875 206.61820360782227 22.32448226095355 21.50024712821355 -7.208305072071665 -3.488063611989158 3.092062457296452 -16.35186508884552 8.410449955663038 -28.632360707345374 -8.603989502288092 29.9300710910492 13.705354045337042
-213.02560596186103 -168.55371496485438 157.72833459435142 0.10755966132182092 218.35234442656727 30.141349777178892 11.967041267012172 -2.3885284970478944 -1.9563548503055195 1.7927699744737178 -13.464658183863428 17.259106298430666 0.8948256421894607 9.157950662255825 6.163262990162226 18.926887475248982
-137.31620579023092 -23.598141423896536 250.90869081094223 0.09804054598348005 189.75117608263326 60.95666346809345 17.771676218216044 -3.1179795950539755 -0.47950434047495705 5.765532325564116 -25.68116340362124 2.826316152255553 -13.65322543733635 1.483502680736503 29.010714348117585 3.2150187513053545
-306.85471030309526 -47.697241366245606 27.851710376569898 0.10674014090566684 188.8353035698431 5.125037854674608 23.81118230793763 -9.65126765552269 -1.5589308051007362 0.8141768399523855 -5.4183125804110555 36.31618677135432 5.307001028272819 3.8566395957485686 -4.770505146366546 36.582437744895465
-123.30760199259738 -61.66740379661817 226.57942755382476 0.09043238029709921 206.5701074665096 58.68048526303779 18.342545784201377 -3.2652047546511103 -1.5213946634995097 6.00416854312768 -25.757542478496678 -2.302143659919937 -14.590882753949332 -5.142943625448153 28.882941663236082 4.521790009538337
-251.79992950092137 0.2012585498316529 27.98083111820031 0.08629374736093849 179.954204661362 6.340877795824372 19.37448563210004 -7.688059839104081 0.005473790677394961 0.7922253324639263 2.4671561523496326 19.17138236920236 23.80977131711619 1.9491911948730416 -23.948575962417145 19.08117225797878
-238.32679148622137 -144.33176668254842 103.59162159173317 0.10163678080846256 211.19928433302348 20.39499481767274 25.201397745845473 -8.47667040748772 -5.492024652015209 3.7525023232792054 -22.925301886199104 29.90271143685838 -8.0223267341874 6.330838373667625 14.308457017934264 35.24230435542656
-194.74092237502828 -95.52170097377409 161.14830258947006 0.09217330257688415 206.12825393543042 36.61009990737033 17.177973793974456 -4.907985623867963 -2.5267848750397133 4.23697854882313 -19.058791777355186 7.778823675934216 -17.438101512721406 -1.5969022415695644 23.922369949497426 12.416656991044121
-197.81808508982377 53.67746976358893 189.5641023076212 0.09530888441873982 164.818481880184 42.76363967456844 21.967527152619578 -6.353186533988388 1.8152455919397257 5.979077968515116 24.098760123551198 9.980295065612122 22.576596657456733 2.096735612179089 -32.254045910059524 12.02024250152668
-143.0436957312724 38.6500669349696 123.55729074823161 0.0653757175577245 164.8798716610547 39.82371807869074 16.021386340169986 -4.55701294843988 1.2402338340414338 4.009943846194022 16.1379746345519 -4.210147711244395 19.641802985296415 -6.65510549653165 -24.88556579817179 0.13379707592115528
