# x y z redshift ra dec radius x1 y1 z1 x2 y2 z2 x3 y3 z3
-101.57253931479215 15.236780813757107 192.446227845616 0.07407655871212632 171.4687379295814 61.911053885679245 25.45282906636615 -6.415913132440763 8.120844843296247 4.434782272338725 29.51271316709675 24.31257881362691 -1.8236918537326896 10.884168058407578 -10.578041152745792 35.11660734743413
-249.35277489881207 -158.88317251971725 -1.6930323533087304 0.10108127966317242 212.504565583239 -0.32807722346816975 14.56618181790539 -4.372226833841913 4.091216391959822 3.990173319460044 16.038053151657305 11.970027541427013 5.300530019438919 3.6317547167067565 -12.140225894577043 16.42714272300729
-202.45225212648998 145.21985018107858 198.8470377287665 0.10919917297562114 144.34796710391868 38.59342755884651 11.40141781609473 -3.5641267281463 2.640207184386832 3.075413311089957 12.231797271873653 9.252244494992617 6.232603966904068 2.2274186577026978 -11.106663008128338 12.116320660687895
-141.79331799281582 1.4767200238785565 104.57157963353372 0.05961916899910853 179.40330921616663 36.40703064151604 11.613462721000156 -3.0942679720558512 -2.9782786594249075 3.2725337733053568 -13.382205129807067 9.903483884619856 -3.640235623630998 3.9900196238364045 10.185569799213685 13.042387964076692
-251.4927657968985 -58.659765418250345 49.701895980397815 0.08964936973446302 193.12929484700234 10.894027529349968 21.991074570108218 -3.785645973530983 -3.2720849489706616 8.305582908288569 -30.504402438810096 4.948934319181522 -11.954071841138301 0.20492517854531536 30.764931768405596 12.213621306616659
-80.66902464452812 -40.10662410254183 19.147937973498536 0.030949333204125084 206.43541745987855 11.999345310795603 20.002682852477072 -7.292984979086103 0.3512895052045848 3.5721568088068363 12.960707939913629 -8.485022511677322 27.295259671553076 -4.9064522571364035 -30.17303713677317 -7.0498616587926115
-71.54775463660768 -236.26620817944962 185.25026840394597 0.10563371775977215 253.15227775332275 36.88531856333381 16.999327850917247 -6.564818462378987 -3.000052216713995 5.587252662423865 -15.007219265501536 -0.032449772593447425 -17.65036003805003 -5.83669317919569 21.939298628361698 4.9223137027797135
-234.85876628388667 -139.68781616662184 1.1873960442993834 0.09323704389040254 210.74306845671137 0.24896515330440458 13.310848994772282 -2.0696715607250136 -4.489362877434479 1.250939928129732 -19.439201388878335 9.173968751725031 0.7614374228143129 2.920074999350865 4.4584680269756385 20.831757341725073
-204.87229950810882 -75.00220144806536 116.90015740859137 0.08426389494234549 200.10729674711516 28.183399048322602 23.169414224507317 7.665282590374237 -2.559447698626462 -6.012468584853756 -20.76839521872467 -22.903951570445308 -16.727597116604308 9.414267557954918 -25.10822583874107 22.690548836521625
-296.83822348966925 -86.2371660302927 47.91545440528486 0.10709785193621647 196.199588828056 8.81131346458604 16.64435998252041 4.438167539564851 -4.7255146283462235 -6.240491810441477 -14.559502014306638 7.1802062243136495 -15.791652608977607 -13.260094829388954 -17.8691138684667 4.100676247160665
-248.29806577517982 176.96737948008618 68.74515155789334 0.10701324674498369 144.52170953429157 12.705540606439875 16.394856733953727 -4.296679351372916 4.167072762393747 3.803299560096651 19.57567238417809 13.730254660690026 7.0716010348562435 3.2066719582315195 -14.775429707447943 19.81130612657154
-154.72723964545176 -140.29192308755208 236.4946537055697 0.10805355164698041 222.19874601028408 48.550753047181885 17.412218154638946 -6.739672121334445 -0.7824831482115633 2.091457904108388 -8.549630178150396 7.115606415539048 -24.888792620535984 -0.6472283784106204 26.156972361615253 7.700505466283754
-65.42762089139588 43.73052015489298 61.172757959264224 0.033515244770989515 146.2420204173492 37.8588325927221 37.10478244929087 -9.179018930830711 9.976558320078503 1.8205269272706004 42.54953258949213 34.12336746707868 27.535544118165124 -15.54841167650249 -24.15133035258705 53.955802122832644
-165.32944376623135 56.50137661203916 57.61904748894212 0.06229382673562921 161.13212484904884 18.251724926279234 16.283538911899164 -5.036210120954256 4.824579326877729 3.5907843970787283 17.696597190972565 14.444713412897553 5.412220288385516 3.2792541317163204 -11.560804496647915 20.132378675463094
-264.5076081379323 72.12205382639284 81.52962829444107 0.09770152355166369 164.74818478930382 16.56118616026981 11.414949423091812 -5.480116823081641 1.7524895143254267 2.7509901332777225 7.7968073309969235 6.188138731237317 11.589560571506194 -0.515045147542151 -13.312381948874625 7.454516812087479
-162.8568835183236 -217.34741854247167 29.608238820720324 0.09321542410059962 233.15603900899026 6.221661593879732 23.395564818780244 -4.044522076199326 -4.534465984317959 4.42195945763138 -33.64905456878162 8.06529480888546 -22.506434090102413 -8.835503831463093 31.91662532706818 24.64732266846597
-183.68813154613673 -142.9148579647687 77.55092478833392 0.08349962451262427 217.88398310665605 18.42881138975284 15.385777773444456 -5.051723731350349 0.9204209072211442 3.0683687243125926 10.347585769677861 -10.017057908279165 20.04095975664272 -8.219505825018484 -22.226058319200323 -6.865323488404789
-203.0865004634192 -64.64886604498089 84.28846153704458 0.07790279875592714 197.65792074520323 21.577933098634805 18.681583038987153 -7.444367082333251 -1.0992404224002668 -0.03478403517242356 -3.675761933222792 25.351703201954088 -14.486410090348699 -2.2341583450407745 14.319438480715958 25.626389579191343
-217.11662012685235 75.32936595756686 215.29078119213654 0.10783703683005345 160.8656050332342 43.13126308172111 13.371165979779672 -2.9577519313155283 -0.3738167979364984 4.342930726118456 -14.6797647579988 -10.89111370695742 -10.935100468105047 -9.75788205688998 18.2477488643683 -5.074932307056746
-185.5672271547543 149.16806536426606 39.70908504227042 0.08213111610876572 141.20596695849403 9.468786255768999 13.121883310620012 -5.0293175694225445 -0.936094723354116 2.711329118125118 -9.497983133683988 0.9042678977184421 -17.305864023328002 -2.3728064776414923 19.466321162936858 2.3194245120815262
-269.19525433743013 26.163177466142642 -2.317128193380925 0.09226290358892321 174.4488387594078 -0.4908549013680228 16.87974143996016 -5.223548977477265 3.9298832240428507 0.27152346018787205 16.13846434542893 21.07156064043181 5.492292501547314 -2.426223204529718 -5.058310669577445 26.535734695746754
-99.89648979734183 104.37139361252312 255.78346007010282 0.10041162361068741 133.74502004937068 60.5409883916495 11.805208159917445 -4.784946089910984 -0.7728932743917946 0.403656019693639 -2.686313810882418 18.004991892710887 2.631127301174442 1.9120610071686563 -2.365141115317105 18.136994920732985
-173.1311449104613 122.29765222831608 104.06974934442682 0.08031251805637882 144.76309953794706 26.149443652736288 25.045347339299457 -6.973647299014287 4.4637956231496005 4.6308590905217235 27.37783899685245 24.248405791289418 17.85488690488738 3.4345645923356845 -26.483099718219258 30.699829971772374
-203.77378312671155 -4.251284130303688 24.638720413456937 0.06964118953540581 181.1951748835386 6.892801213528662 13.573225416970335 5.331878579414331 2.5878135461890026 -1.2501418750525963 7.601953071951828 -7.254512749775065 17.405515978151442 -5.9314011484164055 16.86894368769178 9.621444170284441
-215.91937144552335 14.91767917089263 75.03457010068449 0.07786177266241198 176.04776548928723 19.120692451838124 16.663323866714233 -5.299750638060612 -0.4358582537448443 0.9748197460156925 -5.174448561561221 -1.4104696411949702 -28.762293762631582 -2.572565828175294 29.12180372749057 -0.9652849920272946
-241.2280585933807 69.43178639863267 83.31093832368987 0.09017335210703151 163.942788409381 18.36037466720977 15.025890107931446 -4.347457785596856 2.3189243044196175 4.678064040511442 16.02705451275492 13.123119869997037 8.38924413292618 6.170603551968358 -16.398452176899525 13.863257792131742
-133.9961614706241 -63.67622738082718 136.70361306838598 0.06841096352665427 205.4175035601487 42.65913793068703 18.562821119453712 -7.1542110406516635 2.7712683329328884 4.839921903519118 15.52078921167325 17.099483741814304 13.15139892821574 5.097474085259558 -18.62347720103205 18.19844612213163
-117.05817574921902 3.200370308786305 77.4389937796885 0.04736397803280579 178.43392361742767 33.47649260522907 15.73778762807825 -3.87882559540668 -1.7889165508824516 3.9281339394223886 -13.941033067210531 21.478402196519554 -3.984529792776055 13.313395290742548 12.102655114791618 18.65796319326853
-276.97367056885054 -83.62171125846662 34.72045894555783 0.09958177033618874 196.7997023325364 6.843137214064724 17.985132168872017 -2.5449204570362354 4.875496813567178 4.718193437065153 26.21662744232228 10.052925737030675 3.7527550175129547 4.022602373078567 -18.396845710162818 21.179921307235727
-253.72687180264106 158.21817807225503 31.793467573082967 0.1028449294464561 148.05329428790233 6.069292127088872 30.298081576962026 -12.404841287366732 -2.3413928384831646 8.171860021363482 -22.889377576683714 -4.633102596113256 -36.07342862863726 -8.14669982530924 42.2598526478795 -0.2583991891882903
-62.550059387946355 -112.58849836519379 145.44845655494632 0.06584021710933628 240.94504839373224 48.47457125096652 15.36446034488074 -3.894042809432771 1.1926218564864626 4.296848977340084 18.632840251150192 3.3528377260883104 15.955508421977607 -0.7803145207710942 -24.004753898756714 5.955530702960015
-87.28878626448675 -98.89200009485408 77.80695564690681 0.05172100637937038 228.56619211555693 30.535106547806297 16.025436022044584 -3.8039295587942172 -1.1812464778966603 4.5070271586545685 -18.544767657042335 14.037546352669551 -11.972678611570817 8.166391571200954 21.46538518563314 12.518293533080481
-165.1240846332692 -273.3383750033774 16.72125554786907 0.1095541736625635 238.86376876514916 2.9973533191544712 10.686078804821594 -3.8608046967273855 -2.3808703455577667 1.5429917464649086 -9.275859635086606 12.238217688011916 -4.325799463769212 1.7928487495048948 6.477262085268283 14.480544139669759
-90.62946622370936 137.5551318082383 220.89802778660408 0.09403807589483928 123.37925780807869 53.28748349035556 18.806094633847493 7.30961355640452 4.58388545063222 -3.8720006649829677 13.060606886301173 -1.3808912381924527 23.021210378772874 -10.605864026762484 23.168944202264775 7.406770103948664
-182.05500524721754 234.18510095146488 45.126641273294176 0.10261234937169404 127.86141957227301 8.650272263485002 19.515328093630085 -6.262848523779781 -0.17837821077082452 1.5254542502838504 -6.403977409458243 -17.550666111214 -28.344210831530077 -4.936571753030738 29.047445651957222 -16.870758155057008
-191.01093562108392 -94.29717588349027 89.10904612243856 0.07849751609356147 206.27436603956752 22.700281187996673 23.77289042381953 -5.5222049639886075 -8.516518148920772 8.50273670483723 -28.93503093135985 10.280545172541357 -8.494996894173934 1.1372926323722108 22.11462901783033 22.889101375593068
-204.89200222785982 87.3054464628018 226.5170649619912 0.10881022692287136 156.92091786926855 45.48462049017878 10.898819550544346 -3.327967509652963 -0.42447811916020056 2.2005825431617976 -9.56715838821768 -2.618019551661277 -14.973527983895949 -3.020715729592513 17.671108023677988 -1.1596225347436788
-113.52629307518401 194.09308039352618 73.543347712043 0.08046472480363986 120.32364023172155 18.111277433316182 15.377252986586296 -1.912259251661941 4.033287619635096 3.7642008699653253 20.342974645911774 13.76804321795374 -4.41778676512496 11.924015468186111 -11.664318652728996 18.555694375091345
-171.20493826445409 -194.12452177477618 33.40339138268638 0.0889517270042277 228.58984624955448 7.353544434481764 19.374641381740492 -3.8283313618524892 5.642917731212752 4.327351810866771 26.212234006686167 8.841883908353916 11.659577550763498 -3.4064712815926144 -19.55711209309267 22.489059825566656
-281.1953266524748 -2.006035182466118 33.78559653255237 0.09671979616650464 180.40873865540206 6.851068537726798 15.000684807911519 -2.249954827234621 -0.011833204411520611 4.528224626718841 -20.881768875579077 11.160796318470899 -10.346432114283889 9.969270361717793 23.300908895941127 5.014356456240292
-109.80120082850985 -237.9254788255888 156.6336056437263 0.10445473442323051 245.22695561518856 30.868764904288067 27.146256182729513 -3.500170847141233 -0.3796735297455515 8.048824518474175 -42.67572357967113 -9.699046851434941 -19.01579473576212 -9.708798907293593 46.67924475128397 -2.0201187438201806
-90.82974045816393 -208.45015672930555 223.4857707516311 0.10921659308330375 246.45539332543993 44.50517863162741 12.890458567560298 -2.791753694383022 3.5299368556648663 0.8513443314541368 14.132948128492641 13.432497397548978 -9.350103339962624 9.703527145922491 3.0723930211249666 19.08100376973454
-210.80210077307757 177.482143988701 27.235878017942696 0.09451136913445882 139.90472477608492 5.644531014269281 12.58164027441343 -3.641583066381466 0.9919799750205501 3.2037191374817295 11.788844508067548 13.305166757474021 9.28033834090401 6.753504962222016 -14.461440498360378 12.154282888881259
-150.616780932514 -229.69326396949003 112.72517928929896 0.1015121026914048 236.74593918419788 22.313248825269543 47.4698986788045 -12.69092052057986 -16.68380594428495 5.038446250629943 -45.143970130455465 19.062734501283806 -50.58693911646483 -34.70092848986179 40.3386490720156 46.168095509180674
-128.67957967596493 18.63517841359984 44.13391409523109 0.0463120239352995 171.75980038648768 18.748978118600593 21.131131731259654 -8.858273002573684 0.21080270979659502 2.561907666186438 8.639966300007623 10.285508010605138 29.027965464865385 2.1932054753232713 -30.274890251905997 10.074540193507083
-279.76589109776023 -64.84616099040339 43.56570232582414 0.09925622517480576 193.04998237278852 8.626014298223511 12.711480011116336 3.6748377597380912 0.7272316007596017 -4.3573860874152 10.785664216687744 11.0049049765273 10.932857413579935 -9.741389018526911 15.190393260122532 -5.680260985442361
-101.60137712144483 156.93157840010477 253.48784245286902 0.10786060896734623 122.92001618336793 53.59080521499056 12.261515329125034 5.445171630672498 -1.8078503348762958 -1.3881488163384195 -5.298827083361867 -3.2494258851108553 -16.553374512265393 -4.300574547490287 -16.496715162734283 4.614941448871232
-107.17177591410737 -60.68832022979753 195.20726962212046 0.07846536775560532 209.52164037855835 57.75098283078401 15.162612407153453 8.364194410282707 1.9129283094314735 -5.5850222558537075 8.17107821271491 7.484023022977673 14.800457802155805 -6.821597035452033 16.485087315457744 -4.569789056290679
-116.22037837951336 152.53007311839437 73.75134682123881 0.0696940949202881 127.30560939163904 21.036677259440527 14.28030387510559 4.345402615417199 -3.9045873055778872 -1.3143303298755378 -12.983058216885361 -9.34434694002532 -15.164221838140438 -7.845215775438207 -13.868526377390129 15.262716255682669
-179.5080790396639 -65.13174565249342 255.95662940119058 0.10939966380269989 199.94252440426112 53.27487018288625 14.944923541323293 -3.607290489121382 3.7362724905465954 1.1295972625211406 16.493399851004224 11.368882902404183 15.066644142993194 -8.172010808334317 -13.725831414198485 19.30301194974829
-194.1968729766474 133.87180265433685 15.225287321729354 0.08038909567234413 145.4191246371317 3.693308217613367 20.19566947250682 -6.021573610833575 5.491985044109791 1.3712844596798746 20.945729581802315 23.51516110545835 -2.201338001217578 5.365442541387086 -1.871798657847137 31.05723043203145
-224.33434878455597 125.69924102453334 180.66003777764513 0.10761328718368296 150.7371754956872 35.08984003231259 16.621041810853182 4.830021262803623 2.111677523875499 -1.8081684680243142 -13.243442628676636 10.378825256767032 -23.255232138975853 5.444407837239469 -24.452400324802507 -14.013615988523778
-192.40217806695173 164.39895174251848 43.841414421956856 0.08750948875841578 139.48761030648734 9.828187798180254 20.415104128976544 -8.373935960013233 1.9736172168984156 0.7521222890365098 5.997631395178397 29.194097619075162 -9.831104044667022 4.790663366295934 9.013002043501094 29.687316214165975
-206.70545635262917 -158.34053478301786 91.01623514827571 0.09413426504215262 217.4528406612141 19.267005048163657 13.924520129127696 -5.076085329664328 -2.992511442848819 4.147035223745024 -13.351611219048669 4.170118820264068 -13.333571229901594 -3.1480089347400946 17.134719584122127 8.511208743081301
-209.3355746159173 -172.9882413712883 127.36906925883957 0.10258081421008755 219.5692412029531 25.127641014631923 14.954804320150439 -3.9681668150023754 5.971916277151187 2.869801445274802 17.786078270986128 8.763039579401344 6.357926571002849 -1.6581722426941778 -9.864564847794021 18.234868269615234
-110.91918883639671 -11.680606742901269 83.39184437730158 0.04697841245343718 186.01151067993527 36.78512872947472 21.474739896649194 -4.244379341686701 -1.6526656477739576 5.4277557671010195 -28.433008794011513 17.393363699078982 -16.93795085988091 9.37173992995856 31.921823326494465 17.04817315864704
-182.15655331900447 4.057030041659388 54.99449300826198 0.06447745940736842 178.72410698325407 16.79554681727436 14.709700454822233 -2.6013507550667954 -2.8033828545924027 3.567214641645867 -21.170336017707392 4.671763386677105 -11.766807557840478 -3.1215242452587524 20.297133330204627 13.674662453280881
-167.4291901205779 -0.10688937360907476 90.96200746443577 0.06455407464041664 180.03657850310097 28.51462823392981 27.683188191851766 -5.728341600780216 -1.648370350696179 8.294065577202293 -29.11063013132504 32.287218216955914 -13.688623430103661 24.007535413068734 31.313733784783395 22.804255936823147
-191.5412607067538 43.68846631671767 225.3143731518346 0.10222574961351437 167.15126657867754 48.91353809905106 16.98812937741619 -4.992658423274035 -2.7848837142229925 2.8472506298385842 -13.07563572202185 24.404943540494077 0.9422236866413061 11.293744228354948 5.094005131802219 24.786022854519164
-205.00150625909484 -93.92746453030189 67.90603925843332 0.08009004308422968 204.61627514408568 16.759261468760233 14.46259541608695 -4.1559842364619985 -1.9405041029479349 2.5858645713621167 -14.586337650553563 13.812728911355629 -13.077611485355698 1.9637089184202454 17.483944843477392 16.276494322464515
-203.13066571055325 -180.55189809620268 3.6762131437812795 0.09272560982552927 221.63216947915723 0.7749774681474982 26.40226264018199 -4.029629979983289 -3.917860107611938 6.913039387917542 -34.582827112019956 29.283402993110716 -3.5625025606516387 21.150561214283144 28.438808618813454 28.44598422249761
-139.40561190269602 -14.944281742614956 151.19346638169543 0.06994970806914393 186.11874049268496 47.15970224677545 19.208273442634756 -7.313894968731531 8.37069681352299 3.379037164895469 17.931329952683576 10.246433936121338 13.429290596730194 -6.730132724953374 -13.739904386304902 19.46977401494673
-145.48168721054364 16.91176023836683 65.6959673956012 0.054245915865079194 173.36931755862443 24.1588557961115 13.81094990652994 -1.5748682999698098 -3.8176556714368233 0.903985320304337 -23.152668409491746 8.858234229098697 -2.925617634251158 -0.747867458090989 6.041334378930075 24.210505647452347
-206.8856588582866 -111.76733765450423 183.50920095650042 0.10199420944593765 208.3795693579619 37.968675404098775 11.925214628180257 -4.081372021422154 -1.5402577712586842 2.246835866961921 -9.788856620259772 3.4253987926652445 -15.433245005326501 -3.2746965144081317 17.312291369074817 5.91949629366654
-225.1792043496768 -154.30309819954238 75.89111106608446 0.09675579193395903 214.42072680788021 15.536744754753046 17.80740773024747 -6.102127556262352 -4.4219566090873315 1.0830026560553938 -12.986615234094316 12.995634908501868 -20.110614584211607 -9.828330977167864 17.959497853966305 17.952302180133035
-297.44448200171206 86.02461367642225 16.234667783843264 0.10613298231668765 163.86947855097648 3.0013687305518575 21.493876189928713 -5.664916218934818 0.8228424755086664 5.438508297075477 24.66658041013974 5.633405172401739 24.84113271392939 1.291769609403344 -34.82125840884529 6.613978524265569
-165.57188117777733 121.84287015371669 34.679170772264186 0.07073703601812044 143.6509799029041 9.575426395835409 12.744126299859918 2.4603070910277145 -4.050986451852729 -3.8565334502049735 -14.705984241171846 -10.891374322755633 2.0587329571900432 8.22949814439735 -8.443014260365768 14.118801178531816
-116.27990025730918 -25.250605094329583 39.908858127839565 0.042289503953132926 192.251771118788 18.541292157275453 46.9125708871524 -10.402585952032972 1.5476332242601278 18.231218429931012 59.17844794153999 19.340977518843484 32.124904546172125 14.382868326072128 -67.10016617080899 13.90282670860504
-100.91803627165935 134.57971180987687 81.67144931579465 0.06333239869640142 126.86533411317316 25.897473083754527 26.19139968820557 -7.674562685494012 -4.9865524895022455 -0.13170723191291805 -19.847094631376002 29.858479259127883 26.01905560764659 13.748549619664992 -22.1067807282019 35.856167620879475
-89.51529466288385 -27.564986584099792 189.35743245348408 0.07169709192359681 197.11548587505294 63.681267909803665 20.307625064029356 4.064580478042577 -2.8693734596061793 -3.929923608176162 -27.105752545521877 -20.276182204814827 -13.230174105769976 6.580583849704601 -25.283312965015984 25.266287526756
-150.83058737857118 -115.99648181533242 118.92427766090341 0.07623770636469508 217.5621366257248 32.00573480798153 19.94409486596749 -3.306998750580105 -4.309646758017696 4.73760174610431 -29.270432109574646 7.275256850176704 -13.813633737999764 -3.4776988065120142 25.5789043353136 20.84077595072001
-51.84469868991994 -70.1437338764297 12.941703661465183 0.029621728851366106 233.5311194451508 8.439591448125755 15.93448758139966 4.6038601333473865 5.856721672594501 -6.475935488238929 13.584468038048042 5.019258653631465 14.196773877249289 -11.676542788621658 15.480969668996684 5.6996492322020105
-33.65185836605562 -41.23675271784008 14.56675438395367 0.018487932524538144 230.78332952191997 15.30600807067861 10.101616379934224 -4.460062075829938 3.315105507550773 2.610188381148712 8.383479812407005 9.635917462580156 2.08672958765573 2.9770150416750067 -5.092255590124422 11.554352420324182
-136.45978843291593 183.88206899295537 119.48589858790852 0.08801195030859346 126.57929185603933 27.555906904786045 15.829565530831688 -4.803748541791707 0.0130446047828098 3.4384282776269757 15.027318990058962 2.2704954863074898 20.98570571873439 1.2752866514237255 -25.813280446723287 1.8796030953360006
-172.4675936155651 100.97515676548342 35.446781017577415 0.06883714267777473 149.65216977911717 10.057650611616843 24.833520792454607 -3.8329097679830197 7.070547525226681 5.106076401752631 36.70073616263612 13.692400999929761 8.58934231975395 0.9635814080364679 -23.118054225961806 32.735628794971966
-279.83012230695084 -146.62311707404498 35.34126307881118 0.10888740038352755 207.65327467795356 6.383082444375081 10.82822824315843 -3.4323949537691334 -1.2023852916631321 0.753420766082387 -6.882117528921299 11.901211359212754 -12.360030948769541 -1.5874449673910929 12.820859569152399 13.228829527480915
-59.73386113195513 -133.14795012992388 127.05826972515732 0.06557052888340255 245.83767362911973 41.04479346539098 25.28385018979533 -7.91263896373796 2.5838737657091584 3.785571330867719 20.812788348699037 25.702336447011064 25.959750478815938 3.304783314101269 -31.07787948810515 28.120160846805128
-182.32714977500862 -113.16902281415916 198.03826886883016 0.09979626342688114 211.82754799992458 42.70244926856744 12.69911250896727 -5.050843546290839 -1.1832714100495103 0.9736317130301083 -5.214260408840476 18.40183486756071 -4.68559968043465 2.3454554961644125 5.448911698559799 18.78951757617903
-112.82124519962174 170.0796391335886 69.44038195983103 0.07319391549170616 123.5580526850894 18.78993294791797 21.856604478143783 -10.42949217478715 1.3562881308859114 1.4544275109183955 4.607999381100486 30.721528679857514 4.394752387084204 3.643443946470278 -4.943373291938669 30.736429499435175
-149.22862117577486 -99.52317455281334 38.95557060548102 0.062149187455291285 213.70001483463818 12.253128382162489 15.982490426296643 -4.125078647094198 1.0008244018983292 4.237083551561297 15.250271407269137 18.384885454767254 10.504519538888891 11.231850827015196 -17.993039509807893 15.18500644054939
-55.758483459176254 -175.84684038166648 140.3637992366113 0.07880888878632866 252.40693351163253 37.26683310055631 17.38654189389406 -8.43948641305648 -4.650490657300514 1.930323814929156 -11.70619655856431 16.631014203432 -11.113115045346246 -1.9836107067484323 11.791893380614082 19.736291960647556
-116.89266270760257 12.58452522448508 90.90060685772501 0.05017132445751754 173.85527149382784 37.71025912222753 31.16212224985421 -2.4988580835673764 -8.592834643218072 6.609878094077272 -46.93292249227253 -3.639966598315426 -22.474899192850533 -19.513983940601843 32.919646074530974 35.41826269517791
-288.69975786918087 -128.7753780872523 -5.037450518167392 0.10827866529481861 204.03940175303603 -0.9129506801985982 15.078721028193227 -4.793217488185421 -2.7354847453554454 0.04434019643624846 -12.226329617134498 21.4757246065082 3.2264205142857176 1.7719778443729666 -2.7043090860975885 24.715247758434295
-258.8537835071048 -82.3098556973983 170.82849522058274 0.10994083422665546 197.6395287672668 32.16631203580799 10.071531369817333 -3.5448245630823014 -1.2489313593805684 1.9843179201364942 -8.541694406093029 6.254327533841983 -11.322571914616995 -0.40734445290023025 13.437216156310404 7.729706949912625
-145.99673342774298 222.21153801962157 138.5946478692433 0.10254119445726258 123.30558984793043 27.531435142606238 13.298337401077896 -4.783209168613847 -1.3563423621200499 0.7158870011224451 -6.51422097486484 16.29431957241659 -12.653122044620448 -1.0947137662122015 12.981449121546508 17.28072226805207
-111.14747157283786 42.016782678594375 20.379978702927556 0.040606667051724124 159.2920374061849 9.732323760095548 21.07697823067331 -6.35716265724321 4.543159905043447 1.7144992950599829 20.71044054966639 24.46431184370488 11.965218453984475 -1.551892676624562 -13.945807527546458 31.200012496268673
-243.67164418256786 -26.839757719687913 134.38648930958902 0.09543915512377064 186.28563341432897 28.73115933263967 12.47923928542849 -2.2804357198881102 -2.0077637059155706 3.4724689066112244 -16.236618091564246 -2.737585212285109 -12.245750571388115 -7.390858762699505 18.276600864798716 5.713720725609756
-97.16658675112096 115.35561240057366 242.11056058456577 0.09742750200688785 130.10817729333996 58.07873155994158 10.767713753087566 4.9421165058180545 -2.8749322326767373 -4.602462860550533 -8.321567173293847 -9.628583093072217 -2.921181767129222 4.88204305269409 -7.1682492501327335 9.719982046427656
-127.25998534719167 -263.867564460768 114.29546578624553 0.10768067889203305 244.25257525114972 21.313247925827792 20.510111235487223 -7.5466582816082575 2.5270165547533407 2.5790441152839563 11.479643315479553 3.933795753761012 29.736667879935126 -7.767882920159473 -30.356942085337046 7.014590066195313
-147.5996058495756 -243.2414856775354 12.36676616060947 0.0972673615258595 238.7505080520869 2.48880888245104 13.298252919877497 -6.448459615175858 0.7485968878422421 8.677626913912645 12.147114004573698 1.2981316930390663 8.914694941538125 0.4019698122072373 -14.261780873109522 1.5290367987546254
-112.75542479349114 166.37217546142153 39.766489874882375 0.06949476375608507 124.12667369835201 11.192077018306254 15.651753252518505 -4.588057340392656 1.2825661482346584 1.4193473008550384 10.653836212133356 15.487476719184532 20.443691306096085 -0.8526680403260651 -21.91247692772133 17.044532550671992
-211.39124736904958 26.843683534446665 47.757967081643685 0.07415815893669993 172.76298447221373 12.632512227328926 18.801031614603037 -5.320729716117043 1.3996785120807254 5.247922450008108 18.66575497572432 18.09046773635108 14.099788804790997 9.886062161118762 -22.73959135268277 16.088115422849132
-89.01815394998917 -61.47490308027116 207.2831385427992 0.07950644881225409 214.62850777632636 62.439691368565214 12.262474852682148 -8.3458174733033 -1.0986250875843537 1.20814780427396 -2.1170359353593273 14.326407511718491 -1.5966960224384859 1.8682111510438375 1.9077485684984898 14.64030282038774
-261.7027126791727 -159.63346970906036 13.347901244680193 0.10500030093822865 211.38236371765163 2.493240032921118 23.71270317434593 -4.362510129527956 -2.756230463539656 7.701631878980534 -25.978136269562377 -17.852748064773206 -21.104120951281423 -21.095425332211548 31.497190062681902 -0.6771930954068743
-43.65706731583946 -123.38790093140128 79.83912913876969 0.05177895305296379 250.51521861944326 31.383235857734505 11.190166089331962 -2.800710054203744 -3.6608895127150536 0.4589577441934119 -13.854602390908065 10.449832863711997 -1.1919194735115821 0.09335834497652011 2.092923954584597 17.26397062020022
-81.50138738902508 -169.13135389962858 212.10544611189488 0.09673234135567467 244.27141095799809 48.486491359687236 10.381853633411367 -2.9358406678313367 -2.262075844846857 1.2347801008778276 -11.1179995372667 11.875208719186155 -4.679418129709137 1.0436029442659074 7.028791478282583 15.357804497214786
-216.46489024450486 -20.021871375608345 76.57644836979371 0.07835049227713616 185.284524276647 19.405097506980383 16.98278320586539 -5.948681552871921 -1.870893195631041 2.4454749724986153 -12.134959331006538 9.607049831676033 -22.16879958564748 -2.6853633313996133 24.125851883401083 11.925094774290677
-145.2262149543686 124.54096436722091 14.744655686637646 0.06501489406344063 139.38475485905613 4.407095810151174 20.34425684722225 -4.833318494868004 1.7219889257778012 4.714186652792576 22.31356415368553 -7.43701570840793 25.594027111691197 -11.358766943060125 -32.85591643539546 0.35573175751338265
-168.47850184755538 -162.01584712309042 118.26168046457197 0.08929081260266152 223.87975193513932 26.837362736839335 16.61521568450864 -5.303566699720214 -0.3326382413767111 2.5466849994371157 -9.335562783212415 20.227140870018513 -16.799666759951478 7.792151664402583 19.151723393434672 18.72897185398372
-201.99336361945615 23.072858043645038 79.60823555254308 0.07414507431814021 173.4835855909259 21.38366722068629 26.346192961652264 -7.194055252540501 5.757582681012343 1.4764195314206265 27.61995570724146 30.16449673168357 16.949723932967945 -5.684151453360337 -17.433219767098816 40.28740024105087
-244.2950846948818 45.16367048911195 164.9299882018515 0.10196627066860142 169.52579390108733 33.57924429442502 10.353456893718752 -3.267235656276793 0.31735396519624115 3.3647310745445784 8.502594503350464 10.547108997756117 7.261446020235621 7.054252317175911 -11.12520353646797 7.8991549595270785
-65.91619269708805 -155.1442515029196 97.74512840500803 0.06603927315877042 246.98080012340154 30.10776264108721 18.241819647047507 -6.8955450830871365 0.5995063062693555 -0.13661741530776902 2.2812345170224533 21.668073858469153 -20.057534598991758 1.3090593442068412 20.019111368016304 21.775450662111822
-267.42620276034114 67.93218425122106 155.38421577431276 0.10845656759452002 165.7470653739065 29.386062481770754 12.496622593694706 -1.3232666448992614 1.3717774864915435 3.299443020918901 20.96950605224906 -0.23097391893381738 8.506009215185147 -3.262474386545473 -21.113059467285588 7.469532268437831
-264.4415760872668 79.27244601836453 7.738883198343584 0.09425489012153633 163.31268846741426 1.6057256388913683 11.887281379213617 -3.814433277067499 2.648623743455631 2.2651846167075025 12.109197671886395 11.20040386851726 7.294800968498007 1.170202822364022 -10.687903599058657 14.46764894351524
-82.70369897495759 6.682672384928041 90.6404104772634 0.04139731623326395 175.38038955585597 47.52866498913023 21.962226557055782 9.491045900149349 1.8445809369380295 -7.342328600904427 15.083280253146114 -21.15858168869301 14.181793601418295 10.595863269116643 20.122154576687425 18.751921204427003
-282.757429041017 29.347558112520144 119.54653350407293 0.10554595205755006 174.07445453616893 22.80817993786161 15.576661400096286 -2.9718370402196896 4.807130341995965 3.722651793770483 19.584399639396626 13.161272880732039 -1.3609411317785785 8.20424700719834 -10.172594709745606 19.685610658450827
-133.90787032265985 -43.391909824493375 138.75298675414342 0.06700299808803957 197.954554636773 44.58802400725036 17.13865327597234 3.754140248328489 -6.3199648849210455 -3.5569547099475716 -18.36084039026088 -15.043763003656641 7.350918454161625 12.221602759999882 -4.610544395787624 21.091100567668224
-111.41305848665013 -103.84667629830335 11.420619106531284 0.051580730748362655 222.98688149382184 4.288292045877356 18.10136544452629 -7.278755494340971 3.4204599902874038 0.5710328465676445 8.9843177256605 21.447448551553347 -13.949263520755936 7.440173999690831 11.962199663010301 23.184274101784066
-278.241347522264 57.3037355429199 131.9726219094475 0.10725131399269824 168.3626615924932 24.917694751192844 22.83990890590806 -8.74207116590611 -0.21251377010173078 1.087402416540755 -4.218540862451861 -8.380437740517927 -35.55237901545389 -1.8916812199559272 35.79342919952784 -8.212796962886864
-165.50904885860555 -158.79327861986764 150.51061594335164 0.09361295323654928 223.8136677750661 33.273051244240484 13.752678986332905 -5.077856115469387 0.4354879437458842 1.5862494839757235 5.604511374241222 -7.480488876435467 19.994688978828222 -3.8556705897163983 -20.69395435045806 -6.66135621282661
-212.0060179666054 -117.88255898468721 60.0759416355471 0.08509471604571138 209.07554838642656 13.909923082670604 23.34264524119681 -7.322328434183394 2.0733397888922327 2.4096003190528164 12.93329558248251 37.027391378387 7.441679861108171 9.24218123952459 -10.727904046393796 37.31609598649071
-136.1765535070371 79.74876422764564 169.86148230555003 0.07882663175235022 149.64557772508726 47.106385461894604 10.170050834743126 -4.0671441193659765 -3.3378806090140385 1.5955604398305827 -9.012938941522597 7.4003364906256355 -7.492967137772216 -2.391078743243297 8.123447079754659 10.89913876166818
-137.75476158736487 -244.2697904337133 50.09472281188986 0.09729721471423239 240.57938638612788 10.12802641987047 21.738721489503153 -5.4928358965233794 -6.607085438980747 1.4276396969622862 -24.39995167515125 16.462019362411954 -17.692812873473024 -10.723656057769006 15.158195373837971 28.892590397558706
-143.53060952804665 -252.57322487718145 86.99585024813076 0.10374105780523304 240.3915888508003 16.67097230640664 10.80048934828268 -3.1448733338393904 -1.4804159047512075 3.2487514526148358 -12.17824930780359 5.424252542115495 -9.317087566628691 0.8055751944127509 14.488836234968572 7.382200793351236
-245.2219578443873 48.08746639959547 18.744628811884894 0.08533492520003194 168.90521284817132 4.289768605733238 38.519557496879514 15.120320835320198 -0.6630580185896349 -9.548514068353926 -24.18313454748894 31.119763013224134 -40.455610035129666 -18.12586511888198 -47.14335328129466 -25.429099843252
-216.88678580364055 -84.06554291741766 33.07663898782377 0.07989958541891566 201.18638251317978 8.093117318775125 18.352677954533565 -6.327511167743332 -1.9218665830708617 0.786224738776629 -8.065545517938098 16.654386466546846 -24.200867244012418 -5.018582494745822 23.94985769005386 18.154216826452398
-288.85004626507197 -14.39575486668806 62.558575478178994 0.10115931760896091 182.8531555355245 12.205578104034283 15.213746370209297 -5.620901063199005 3.3659677692290817 0.6658458342449654 11.749335354876147 19.868383731640275 -1.2532746115590847 2.6511872989981997 -0.11832549239953497 22.978804573769644
-190.33810379491544 27.08951818162779 125.03041794906159 0.07795336010808983 171.89988360416825 33.03725401856218 17.496832646865297 -2.1669745110291143 -3.7808256345326745 5.118838225056902 -22.889226138079703 16.347532611258167 2.3846818756355455 13.787862812260446 16.65892134449491 18.141308643844127
-67.90611282320667 78.9902127684525 91.82373531623601 0.046841725299835456 130.6849091736166 41.396430685877306 17.853194226893052 -4.789979940026525 -5.270251902954301 4.172865726541616 -16.28319818754068 -1.4589943035749802 -20.533960543615642 -13.858094899246339 20.162035759673135 9.556744302081116
-164.41997920332648 -11.679894262711453 194.48082915547008 0.08684641052841227 184.06329195051205 49.71669970654998 10.28300410390231 -1.8050065029445557 -2.9188014583615867 0.24253244451772063 -13.65722544089262 9.022305023521033 6.93901523481442 6.522548196651506 -2.677588740021387 16.319020736910453
-209.0473751814272 -150.01093272400107 46.69271904228701 0.08913387619019711 215.6629569896396 10.285579090275577 16.83252196500241 -2.199320161290522 3.3336611653056067 5.255062430347124 24.58216223138085 -0.8874611310799938 10.850972841482161 -6.1848437635441 -23.178976362900396 12.11563185268143
-218.9262546955929 -146.12200379434967 5.93576773257238 0.08975253991245341 213.7210694101412 1.2918762213325006 20.580219186750973 -4.521286660270888 5.8951917177417785 1.1128397067549203 27.188164199986986 20.366426044553457 2.5713478405149965 0.9989327015273468 -5.573845648293036 33.585564545229914
-234.88897072356846 185.91348136510672 14.15351780538146 0.10256196050797911 141.6385561240421 2.7050746086227497 25.123227934298303 -9.03142038601723 -4.551204334666104 4.384951180283158 -21.435965352482487 17.69240727023073 -25.78716368105957 -3.61163904850825 29.676760388778543 23.3632635298821
-50.68516475850501 55.54113034890196 23.056436262830367 0.026399388103489102 132.38263702473992 17.047376883134497 14.385490822402105 -2.771590657412198 1.1899893259687735 3.1269761679730967 20.14986284259769 6.5931587678816195 15.35073517224752 0.5408284276488255 -24.29799073831758 9.726106949556414
-144.81411206903476 6.548891571484171 208.35439043282952 0.08645804421575953 177.41069177640367 55.171817494916084 18.7744610628095 -3.687413479037684 6.190481304289315 2.370391768448326 23.27576162979886 16.664470233411507 -7.31260312660387 11.168788638662043 -3.7165346912708253 27.080367535953737
-124.2248863744716 -203.89721910943516 46.64853477622232 0.0827897168951368 238.64803406164054 11.055132797229085 33.983582437936114 -8.517976419929406 -9.44104504622531 1.5440696576415238 -40.466712640488325 33.72557511653714 -17.026323941118537 -8.481530333616618 16.19585098644378 52.23875939736411
-121.02925232829446 -123.32673111002498 262.00052654293114 0.10746627422487767 225.5386893218466 56.59452959316007 22.46272745218055 -8.67839183309168 0.09826542366160647 1.0283514508780647 4.031954545622418 14.738573655809903 32.61782650963341 1.3668961024711532 -32.849774243001626 14.674415971954046
-102.35555876467782 132.51891644208226 30.54504437158544 0.05756641263440068 127.68194202550445 10.338113664835543 25.004916196877836 -3.5947479241104934 -8.22660568001926 5.205597083205002 -28.235995949333716 21.90772542764262 15.123131767012952 22.986467662505333 8.928475613338495 29.9834202709617
-109.37123384971018 -178.4998620330163 13.835317498782269 0.07119387816949596 238.50317893107558 3.781144875667687 15.700312538423898 -6.153033706352092 1.786626965690093 0.6937623458539066 6.765904604118231 16.947598510035697 16.362667488693216 -2.7108033189616054 -16.344813073268757 18.050013333587643
-135.50474191392274 -191.65819582885618 11.132906281963013 0.07991241843270769 234.739211407448 2.715514405294842 15.446839236245582 -7.21954626859766 -2.999794800897445 0.9171677055663676 -7.5760607614367945 19.692807246007582 4.774110082784703 4.115945422551307 -3.4976482018576367 20.959123843071303
-120.52465383480983 183.41473122849877 170.98842919932815 0.09496789248459028 123.30953413879912 37.9220294814327 12.286537143290541 -1.1869697231234266 -2.6865983087319294 2.942730480551236 -15.191719706514812 -7.25502652997599 -12.751236848581676 -13.377108907996393 14.395524029169028 7.746807736564671
-174.53914174582084 103.36262767135614 71.04702045234788 0.07296724981863946 149.36584951164505 19.302588106158094 12.7642244712798 -3.1768289689254874 2.672638864479433 0.4015445732892797 13.82105177015218 15.08441831174579 8.94524607063638 -4.279913308048819 -8.14421390039065 20.346408724673953
-107.13687185721025 -266.94284383215796 120.61567599936777 0.10678208736739687 248.13205917266544 22.749694713803475 25.93282355748945 6.99509019036951 10.98701600429719 -5.590894531939984 23.14767469760222 -1.387746729638873 26.234241379565827 -19.85988440220468 22.15757292926409 18.695385010277388
-153.77576268265966 27.87801978735032 55.61138933642299 0.05608278838813647 169.72444619217563 19.58755456741495 14.293850989100582 6.93295604683427 -1.3161081572314253 -2.5791508684550153 -5.5387481215513406 -18.01146804773312 -5.697556292497614 5.20024124853353 -7.179979613338189 17.64250176421227
-162.678043938886 207.8680578591805 168.57797099839652 0.10723618808087983 128.04681933761339 32.564622983258005 15.346183354750908 4.531170282761257 1.0406417295599724 -0.7028857488236465 -5.28915392087707 4.955500998350869 -26.759905103990878 5.181817867047013 -26.578978484373238 -5.946193982543448
-122.79156142884389 166.75510895190806 153.3892532117196 0.08781112697316888 126.36639370190068 36.52732975390455 13.435034016210308 -1.4698984107329882 2.296401873287527 3.666810781152349 21.769435080408353 5.177903814480061 5.483869009912008 1.398913159798861 -19.230300231523856 12.604074893488356
-97.7597104327304 -186.5322478780937 92.61454800777274 0.07820509104136482 242.34140998291247 23.738488293633598 38.53642381031862 -6.667931569221417 -3.823463743277145 12.252751761348767 -53.87552876864521 24.09288017283963 -21.800824049631174 14.640248168144183 55.664876508455755 25.337394904629207
-97.6847576191823 115.46650984458238 215.20993008934977 0.08966944190917255 130.2312471700017 54.90139186406767 14.865225760390542 -3.377357148315473 4.370495235062116 2.058861262449436 19.043607329083024 10.275614272538064 9.426346729180947 -3.4009554355023828 -12.055762402278756 20.012718551994187
-189.516663583745 98.73931684978275 14.128174278468112 0.07270156141714783 152.48021634283003 3.782513902396235 13.918148959464625 4.140550350009043 -1.2356861611135237 -6.236080952142509 -11.329859232443143 11.488649890457172 -9.799138073883922 -11.008139450979742 -14.619336535580894 -4.41220119273319
-298.78266170418 47.61072175932182 104.88842454081743 0.10970830294242392 170.94609465090394 19.120342874397014 11.460273306042723 -2.222531020530802 -0.8052437949292818 3.2078680993044975 -15.844464102470056 -0.9523110173275829 -11.216687966931524 -3.03299271493204 19.009472840879376 2.670415176319662
-282.6236421140846 7.4338184584449625 121.78441963911828 0.10535109997907012 178.49330283798233 23.304333903480202 14.058915480730517 -4.544290215306048 3.1260456673903763 0.4084497830465492 10.077227404733925 12.618351549139946 15.542431325579265 -7.854122392566434 -13.516623048790045 16.06603713219599
-274.7910894506605 110.09415696182138 98.5965585556602 0.10681998293384616 158.1666527649123 18.421277164960145 10.743438414946699 -2.7817625611776333 1.4993250163350722 2.2754482961120863 10.522111771024655 -2.1167511303076587 14.258163794634749 -6.725562907446226 -16.331176453056624 2.538762279653485
-121.46098558497833 140.26454639875007 48.91183325168377 0.0650155860296754 130.89066940291454 14.767884117804401 12.22762080331905 -3.735386123565628 3.179836049166934 0.8673284471456537 12.003221463976116 14.746656923663531 -2.369672530290996 4.078199540513176 -0.3128256011512794 18.710771161507292
-134.77433956099853 91.79880773601805 14.680589888364112 0.05534441419821733 145.74005962411337 5.144325262759808 14.988324579823022 -3.559136136005108 -2.810626156238688 1.5743378815147786 -15.01660990630404 21.397919788366828 4.25283172505516 9.506543324587525 1.7714757833773276 24.654198125243408
-293.1004382554594 4.2654586711789255 101.0635524973142 0.10613461780640096 179.16623963392342 19.022764470281597 23.178718949234536 -5.693034828153309 -4.722077434619518 3.3950393081095824 -22.91952824550261 5.142278311060787 -31.28076777126629 -16.003222622256192 31.44019878368789 16.89410468038026
-150.45092482802693 11.636756693683154 249.94977871125866 0.09978198760081569 175.57721403249704 58.87967888885149 14.085924295078604 6.139414814082934 0.5207073805150962 -4.485168839424237 8.407582138137556 11.508507840195712 12.844599916555651 -7.621734550832158 15.237716771716682 -8.663798357732164
-142.46767718115652 187.4168124217351 18.147201207415115 0.08030502330802469 127.24082137129366 4.4079108534612885 16.95590797597373 -6.728956424809539 0.18555868824334196 2.0577818003938213 6.869927373904097 13.97704017652966 21.204328219626998 3.5289631121015743 -22.290658667346896 13.549767221747485
-34.202995755050004 32.82013016478791 54.9772621466241 0.02435464275062261 136.18199681808252 49.23137198829746 12.855832242710843 -6.131074740084567 1.3890834218386592 1.3256352359816237 4.118730297116379 17.69763314500627 0.5044785022370329 3.545601543028951 -1.332402830289916 17.79461355684973
-97.48032059968311 32.40214862697348 90.2316291843752 0.04611355173596947 161.6133571478029 41.295591518672644 10.991913724927516 -3.4793250665071445 0.5628479397603209 1.4341914876390638 7.054609194110485 -0.44904136401263384 17.29059252115909 -2.7274424058885245 -18.47315179114782 0.6330512376414442
-249.74354750798602 -16.648436405107322 5.873390838795275 0.08525571401184004 183.8138159553075 1.3442335615698422 17.448976480394766 -7.427426684518597 -0.07828634995107428 3.986238841544096 -10.710645893865436 11.207829341310816 -19.736679159958346 5.11935733872608 22.466687878799462 9.979955510982746
-231.48382694938735 52.1230697021981 55.40627793458568 0.0829248948105587 167.31037973553947 13.143423309778889 16.010012340902627 -3.4762746340708244 0.7031612239244966 4.028504455756908 17.622190810341444 -12.355804567363155 17.363192306501386 -11.546875448395417 -24.468772546122786 -5.6930849709737315
-114.36794672125048 -23.9836113530033 115.3471163170153 0.05550485269373983 191.84362872305405 44.6277783826378 11.444224885313348 -3.794960605817047 -1.6978060394033596 1.2373858704187877 -8.657415097940707 15.633999775054368 -5.100308770001294 2.4646458067446533 6.93499562472185 17.074311016357612
-140.2707150823382 -229.36781055502598 80.00676149425328 0.09577046258972957 238.55197806642826 16.57186088710622 14.297546752173172 -4.041919465745931 4.8208447533898315 0.6561078879611436 14.886970603322274 10.994874966928293 10.924043287049695 -7.188995255390717 -8.529106434307046 18.381364352272424
-308.02765197003174 -16.170573001860973 8.54666315037904 0.10560928475879912 183.00510635827632 1.5871602739799977 17.473456978321767 -5.558451377669448 -5.058720907741817 0.1323008144999645 -17.773536357485323 19.424781036796045 -3.9968891739175345 -2.349702014872086 3.2708166059797885 26.344841198098568
-285.6526489631005 -50.053611176496865 2.8942749181724223 0.09909882717044272 189.93877798053242 0.5717981792556626 31.409628072757915 -9.220266987966927 -0.8839719121050368 9.715071212751413 -25.93821946341702 34.28106191782021 -21.49791887460067 23.379407491824008 33.51681649248258 25.238343403576955
-89.81597415249482 185.82810477885857 201.56971494690694 0.09856484631781054 115.79579076282043 44.322321348452824 11.122412613336854 -4.420981213136763 0.5452728644000306 2.026140115231972 7.163753003541052 2.4588728664868857 14.969379740862475 -0.6492544132360367 -16.473214461499 3.0166004936609006
-252.48532068393683 -19.985636658887174 45.34938400086795 0.08767013489452637 184.52584732142836 10.15134790222074 16.652116166172785 -3.6249825497722923 -1.9679032192823225 3.245747381248666 -18.873114086353656 21.401322592645254 -8.102595336858956 10.19539465893903 17.265161274082857 21.854533285367
-130.29256491732968 70.0188999185709 11.589446560424095 0.05008838420571685 151.74652658385375 4.480095044411376 13.914837067571982 -4.222498257267793 -2.8773535503879994 1.4147775622396155 -11.696228632636734 18.92728933663869 3.585862745838992 7.000239627576936 0.26537241943661694 21.43239383379903
